# .PCD v0.7 - Point Cloud Data file format
VERSION 0.7
FIELDS x y z rgb
SIZE 4 4 4 4
TYPE F F F F
COUNT 1 1 1 1
WIDTH 1202
HEIGHT 1
VIEWPOINT 0 0 0 1 0 0 0
POINTS 1202
DATA ascii
-1.033806 2.9352765 0.847 15728640
-1.033806 2.9352765 0.82999998 15728640
-1.0582836 2.936991 0.86400002 15728640
-1.0523133 2.936991 0.86799997 15728640
-1.0475373 2.936991 0.86799997 15728640
-1.0457463 2.936991 0.85799998 15728640
-1.0421641 2.936991 0.852 15728640
-1.0391791 2.936991 0.84500003 15728640
-1.033806 2.936991 0.847 15728640
-1.033806 2.936991 0.82999998 15728640
-1.0582836 2.9387057 0.86400002 15728640
-1.0523133 2.9387057 0.86799997 15728640
-1.0475373 2.9387057 0.86799997 15728640
-1.0457463 2.9387057 0.85799998 15728640
-1.0421641 2.9387057 0.852 15728640
-1.0391791 2.9387057 0.84500003 15728640
-1.033806 2.9387057 0.847 15728640
-1.033806 2.9387057 0.82999998 15728640
-1.0535074 2.9404202 0.84600002 15728640
-1.0511193 2.9404202 0.83700001 15728640
-1.0481343 2.9404202 0.83099997 15728640
-1.0433581 2.9404202 0.829 15728640
-1.0535074 2.9421346 0.84600002 15728640
-1.0511193 2.9421346 0.83700001 15728640
-1.0481343 2.9421346 0.83099997 15728640
-1.0433581 2.9421346 0.829 15728640
-1.0535074 2.9438491 0.84600002 15728640
-1.0511193 2.9438491 0.83700001 15728640
-1.0481343 2.9438491 0.83099997 15728640
-1.0433581 2.9438491 0.829 15728640
-1.0535074 2.9455636 0.84600002 15728640
-1.0511193 2.9455636 0.83700001 15728640
-1.0481343 2.9455636 0.83099997 15728640
-1.0433581 2.9455636 0.829 15728640
-1.0535074 2.9472783 0.84600002 15728640
-1.0511193 2.9472783 0.83700001 15728640
-1.0481343 2.9472783 0.83099997 15728640
-1.0433581 2.9472783 0.829 15728640
-1.0535074 2.9489927 0.84600002 15728640
-1.0511193 2.9489927 0.83700001 15728640
-1.0481343 2.9489927 0.83099997 15728640
-1.0433581 2.9489927 0.829 15728640
-1.0535074 2.9507072 0.84600002 15728640
-1.0511193 2.9507072 0.83700001 15728640
-1.0481343 2.9507072 0.83099997 15728640
-1.0433581 2.9507072 0.829 15728640
-1.0535074 2.9524217 0.84600002 15728640
-1.0511193 2.9524217 0.83700001 15728640
-1.0481343 2.9524217 0.83099997 15728640
-1.0433581 2.9524217 0.829 15728640
-1.0535074 2.9541364 0.84600002 15728640
-1.0511193 2.9541364 0.83700001 15728640
-1.0481343 2.9541364 0.83099997 15728640
-1.0433581 2.9541364 0.829 15728640
-1.0535074 2.9558508 0.84600002 15728640
-1.0511193 2.9558508 0.83700001 15728640
-1.0481343 2.9558508 0.83099997 15728640
-1.0433581 2.9558508 0.829 15728640
-1.0535074 2.9575655 0.84600002 15728640
-1.0511193 2.9575655 0.83700001 15728640
-1.0481343 2.9575655 0.83099997 15728640
-1.0433581 2.9575655 0.829 15728640
-1.0535074 2.95928 0.84600002 15728640
-1.0511193 2.95928 0.83700001 15728640
-1.0481343 2.95928 0.83099997 15728640
-1.0433581 2.95928 0.829 15728640
-1.3024627 9.3784828 0.32800001 15728640
-1.3024627 9.3801975 0.32800001 15728640
-1.3024627 9.3819122 0.32800001 15728640
-1.3024627 9.3836269 0.32800001 15728640
-1.3024627 9.3853416 0.32800001 15728640
-1.3024627 9.3870544 0.32800001 15728640
-1.3024627 9.3887691 0.32800001 15728640
-1.3299253 9.4110584 0.39199999 15728640
-1.3299253 9.4127731 0.39199999 15728640
-1.3299253 9.4144878 0.39199999 15728640
-1.3299253 9.4162025 0.39199999 15728640
-1.3299253 9.4179173 0.39199999 15728640
-1.3299253 9.419632 0.39199999 15728640
-1.3299253 9.4213467 0.39199999 15728640
-1.3299253 9.4230614 0.39199999 15728640
-1.3299253 9.4247742 0.39199999 15728640
-1.3299253 9.4264889 0.39199999 15728640
-1.3299253 9.4282045 0.39199999 15728640
-1.3299253 9.4299183 0.39199999 15728640
-1.3299253 9.431633 0.39199999 15728640
-1.2970896 9.4333477 0.447 15728640
-1.2964926 9.4333477 0.30199999 15728640
-1.2970896 9.4350624 0.447 15728640
-1.2964926 9.4350624 0.30199999 15728640
-1.2970896 9.4367771 0.447 15728640
-1.2964926 9.4367771 0.30199999 15728640
-1.2970896 9.4384909 0.447 15728640
-1.2964926 9.4384909 0.30199999 15728640
-1.2970896 9.4402056 0.447 15728640
-1.2964926 9.4402056 0.30199999 15728640
-1.2970896 9.4419203 0.447 15728640
-1.2964926 9.4419203 0.30199999 15728640
-1.2970896 9.443635 0.447 15728640
-1.2964926 9.443635 0.30199999 15728640
-1.2970896 9.4453497 0.447 15728640
-1.2964926 9.4453497 0.30199999 15728640
-1.2970896 9.4470644 0.447 15728640
-1.2964926 9.4470644 0.30199999 15728640
-1.2970896 9.4487791 0.447 15728640
-1.2964926 9.4487791 0.30199999 15728640
-1.2970896 9.4504929 0.447 15728640
-1.2964926 9.4504929 0.30199999 15728640
-1.2970896 9.4522076 0.447 15728640
-1.2964926 9.4522076 0.30199999 15728640
-1.2970896 9.4539223 0.447 15728640
-1.2964926 9.4539223 0.30199999 15728640
-1.3717164 9.455637 0.39399999 15728640
-1.3400745 9.455637 0.257 15728640
-1.275597 9.455637 0.27900001 15728640
-1.3717164 9.4573517 0.39399999 15728640
-1.3400745 9.4573517 0.257 15728640
-1.275597 9.4573517 0.27900001 15728640
-1.3717164 9.4590664 0.39399999 15728640
-1.3400745 9.4590664 0.257 15728640
-1.275597 9.4590664 0.27900001 15728640
-1.3717164 9.4607811 0.39399999 15728640
-1.3400745 9.4607811 0.257 15728640
-1.275597 9.4607811 0.27900001 15728640
-1.3717164 9.4624939 0.39399999 15728640
-1.3400745 9.4624939 0.257 15728640
-1.275597 9.4624939 0.27900001 15728640
-1.3717164 9.4642086 0.39399999 15728640
-1.3400745 9.4642086 0.257 15728640
-1.275597 9.4642086 0.27900001 15728640
-1.3717164 9.4659233 0.39399999 15728640
-1.3400745 9.4659233 0.257 15728640
-1.275597 9.4659233 0.27900001 15728640
-1.3717164 9.467638 0.39399999 15728640
-1.3400745 9.467638 0.257 15728640
-1.275597 9.467638 0.27900001 15728640
-1.3717164 9.4693527 0.39399999 15728640
-1.3400745 9.4693527 0.257 15728640
-1.275597 9.4693527 0.27900001 15728640
-1.3717164 9.4710674 0.39399999 15728640
-1.3400745 9.4710674 0.257 15728640
-1.275597 9.4710674 0.27900001 15728640
-1.3717164 9.4727821 0.39399999 15728640
-1.3400745 9.4727821 0.257 15728640
-1.275597 9.4727821 0.27900001 15728640
-1.3717164 9.4744959 0.39399999 15728640
-1.3400745 9.4744959 0.257 15728640
-1.275597 9.4744959 0.27900001 15728640
-1.2947015 9.4762106 0.331 15728640
-1.2947015 9.4779253 0.331 15728640
-1.2947015 9.47964 0.331 15728640
-1.2947015 9.4813547 0.331 15728640
-1.2947015 9.4830694 0.331 15728640
-1.2947015 9.4847841 0.331 15728640
-1.2947015 9.4864988 0.331 15728640
-1.2947015 9.4882126 0.331 15728640
-1.2947015 9.4899273 0.331 15728640
-1.3711194 9.491642 0.39700001 15728640
-1.3078358 9.491642 0.333 15728640
-1.2594776 9.491642 0.28799999 15728640
-1.3711194 9.4933567 0.39700001 15728640
-1.3078358 9.4933567 0.333 15728640
-1.2594776 9.4933567 0.28799999 15728640
-1.3711194 9.4950705 0.39700001 15728640
-1.3078358 9.4950705 0.333 15728640
-1.2594776 9.4950705 0.28799999 15728640
-1.3711194 9.4967861 0.39700001 15728640
-1.3078358 9.4967861 0.333 15728640
-1.2594776 9.4967861 0.28799999 15728640
-1.3711194 9.4985008 0.39700001 15728640
-1.3078358 9.4985008 0.333 15728640
-1.2594776 9.4985008 0.28799999 15728640
-1.3711194 9.5002136 0.39700001 15728640
-1.3078358 9.5002136 0.333 15728640
-1.2594776 9.5002136 0.28799999 15728640
-1.3711194 9.5019283 0.39700001 15728640
-1.3078358 9.5019283 0.333 15728640
-1.2594776 9.5019283 0.28799999 15728640
-1.3711194 9.503643 0.39700001 15728640
-1.3078358 9.503643 0.333 15728640
-1.2594776 9.503643 0.28799999 15728640
-1.3711194 9.5053577 0.39700001 15728640
-1.3078358 9.5053577 0.333 15728640
-1.2594776 9.5053577 0.28799999 15728640
-1.3711194 9.5070724 0.39700001 15728640
-1.3078358 9.5070724 0.333 15728640
-1.2594776 9.5070724 0.28799999 15728640
-1.3711194 9.5087872 0.39700001 15728640
-1.3078358 9.5087872 0.333 15728640
-1.2594776 9.5087872 0.28799999 15728640
-1.3711194 9.5105019 0.39700001 15728640
-1.3078358 9.5105019 0.333 15728640
-1.2594776 9.5105019 0.28799999 15728640
-1.3711194 9.5122156 0.39700001 15728640
-1.3078358 9.5122156 0.333 15728640
-1.2594776 9.5122156 0.28799999 15728640
-1.3645523 9.5139303 0.414 15728640
-1.3179851 9.5139303 0.366 15728640
-1.3645523 9.515645 0.414 15728640
-1.3179851 9.515645 0.366 15728640
-1.3645523 9.5173597 0.414 15728640
-1.3179851 9.5173597 0.366 15728640
-1.3645523 9.5190744 0.414 15728640
-1.3179851 9.5190744 0.366 15728640
-1.3645523 9.5207891 0.414 15728640
-1.3179851 9.5207891 0.366 15728640
-1.3645523 9.5225039 0.414 15728640
-1.3179851 9.5225039 0.366 15728640
-1.3645523 9.5242176 0.414 15728640
-1.3179851 9.5242176 0.366 15728640
-1.3645523 9.5259323 0.414 15728640
-1.3179851 9.5259323 0.366 15728640
-1.3645523 9.5276461 0.414 15728640
-1.3179851 9.5276461 0.366 15728640
-1.3645523 9.5293617 0.414 15728640
-1.3179851 9.5293617 0.366 15728640
-1.3645523 9.5310764 0.414 15728640
-1.3179851 9.5310764 0.366 15728640
-1.3645523 9.5327902 0.414 15728640
-1.3179851 9.5327902 0.366 15728640
-1.3203731 9.5567932 0.38 15728640
-1.2947015 9.5567932 0.308 15728640
-1.2475373 9.5567932 0.39399999 15728640
-1.3203731 9.5585089 0.38 15728640
-1.2947015 9.5585089 0.308 15728640
-1.2475373 9.5585089 0.39399999 15728640
-1.3203731 9.5602236 0.38 15728640
-1.2947015 9.5602236 0.308 15728640
-1.2475373 9.5602236 0.39399999 15728640
-1.3203731 9.5619373 0.38 15728640
-1.2947015 9.5619373 0.308 15728640
-1.2475373 9.5619373 0.39399999 15728640
-1.3203731 9.563652 0.38 15728640
-1.2947015 9.563652 0.308 15728640
-1.2475373 9.563652 0.39399999 15728640
-1.3203731 9.5653658 0.38 15728640
-1.2947015 9.5653658 0.308 15728640
-1.2475373 9.5653658 0.39399999 15728640
-1.3203731 9.5670815 0.38 15728640
-1.2947015 9.5670815 0.308 15728640
-1.2475373 9.5670815 0.39399999 15728640
-1.3203731 9.5687962 0.38 15728640
-1.2947015 9.5687962 0.308 15728640
-1.2475373 9.5687962 0.39399999 15728640
-1.3203731 9.5705099 0.38 15728640
-1.2947015 9.5705099 0.308 15728640
-1.2475373 9.5705099 0.39399999 15728640
-1.3203731 9.5722256 0.38 15728640
-1.2947015 9.5722256 0.308 15728640
-1.2475373 9.5722256 0.39399999 15728640
-1.3203731 9.5739403 0.38 15728640
-1.2947015 9.5739403 0.308 15728640
-1.2475373 9.5739403 0.39399999 15728640
-1.3203731 9.5756531 0.38 15728640
-1.2947015 9.5756531 0.308 15728640
-1.2475373 9.5756531 0.39399999 15728640
-1.2887313 9.5773678 0.37 15728640
-1.2744029 9.5773678 0.30599999 15728640
-1.2887313 9.5790825 0.37 15728640
-1.2744029 9.5790825 0.30599999 15728640
-1.2887313 9.5807972 0.37 15728640
-1.2744029 9.5807972 0.30599999 15728640
-1.2887313 9.5825119 0.37 15728640
-1.2744029 9.5825119 0.30599999 15728640
-1.2887313 9.5842266 0.37 15728640
-1.2744029 9.5842266 0.30599999 15728640
-1.2887313 9.5859413 0.37 15728640
-1.2744029 9.5859413 0.30599999 15728640
-1.2887313 9.5876551 0.37 15728640
-1.2744029 9.5876551 0.30599999 15728640
-1.2887313 9.5893688 0.37 15728640
-1.2744029 9.5893688 0.30599999 15728640
-1.2887313 9.5910845 0.37 15728640
-1.2744029 9.5910845 0.30599999 15728640
-1.2887313 9.5927992 0.37 15728640
-1.2744029 9.5927992 0.30599999 15728640
-1.2887313 9.5945129 0.37 15728640
-1.2744029 9.5945129 0.30599999 15728640
-1.2887313 9.5962286 0.37 15728640
-1.2744029 9.5962286 0.30599999 15728640
-1.3102238 9.0287189 0.759 15728640
-1.3102238 9.0304327 0.759 15728640
-1.3102238 9.0321474 0.759 15728640
-1.3102238 9.0338621 0.759 15728640
-1.3102238 9.0355768 0.759 15728640
-1.3102238 9.0372915 0.759 15728640
-1.3102238 9.0390053 0.759 15728640
-1.3102238 9.04072 0.759 15728640
-1.3102238 9.0424347 0.759 15728640
-1.3102238 9.0441494 0.759 15728640
-1.3102238 9.0458641 0.759 15728640
-1.3102238 9.0475788 0.759 15728640
-1.3400745 9.0492926 0.70300001 15728640
-1.2809701 9.0492926 0.76899999 15728640
-1.2732089 9.0492926 0.77399999 15728640
-1.2666419 9.0492926 0.77600002 15728640
-1.2600746 9.0492926 0.77600002 15728640
-1.3400745 9.0510073 0.70300001 15728640
-1.2809701 9.0510073 0.76899999 15728640
-1.2732089 9.0510073 0.77399999 15728640
-1.2666419 9.0510073 0.77600002 15728640
-1.2600746 9.0510073 0.77600002 15728640
-1.3400745 9.052722 0.70300001 15728640
-1.2809701 9.052722 0.76899999 15728640
-1.2732089 9.052722 0.77399999 15728640
-1.2666419 9.052722 0.77600002 15728640
-1.2600746 9.052722 0.77600002 15728640
-1.3400745 9.0544367 0.70300001 15728640
-1.2809701 9.0544367 0.76899999 15728640
-1.2732089 9.0544367 0.77399999 15728640
-1.2666419 9.0544367 0.77600002 15728640
-1.2600746 9.0544367 0.77600002 15728640
-1.3400745 9.0561514 0.70300001 15728640
-1.2809701 9.0561514 0.76899999 15728640
-1.2732089 9.0561514 0.77399999 15728640
-1.2666419 9.0561514 0.77600002 15728640
-1.2600746 9.0561514 0.77600002 15728640
-1.3400745 9.0578651 0.70300001 15728640
-1.2809701 9.0578651 0.76899999 15728640
-1.2732089 9.0578651 0.77399999 15728640
-1.2666419 9.0578651 0.77600002 15728640
-1.2600746 9.0578651 0.77600002 15728640
-1.3400745 9.0595798 0.70300001 15728640
-1.2809701 9.0595798 0.76899999 15728640
-1.2732089 9.0595798 0.77399999 15728640
-1.2666419 9.0595798 0.77600002 15728640
-1.2600746 9.0595798 0.77600002 15728640
-1.3400745 9.0612946 0.70300001 15728640
-1.2809701 9.0612946 0.76899999 15728640
-1.2732089 9.0612946 0.77399999 15728640
-1.2666419 9.0612946 0.77600002 15728640
-1.2600746 9.0612946 0.77600002 15728640
-1.3400745 9.0630093 0.70300001 15728640
-1.3138059 9.0630093 0.736 15728640
-1.3090298 9.0630093 0.73199999 15728640
-1.3096268 9.0630093 0.71399999 15728640
-1.2779851 9.0630093 0.778 15728640
-1.2720149 9.0630093 0.77700001 15728640
-1.2672387 9.0630093 0.77399999 15728640
-1.2624626 9.0630093 0.76999998 15728640
-1.2570895 9.0630093 0.76800001 15728640
-1.2529104 9.0630093 0.76499999 15728640
-1.2529104 9.0630093 0.74800003 15728640
-1.3400745 9.064724 0.70300001 15728640
-1.3138059 9.064724 0.736 15728640
-1.3090298 9.064724 0.73199999 15728640
-1.3096268 9.064724 0.71399999 15728640
-1.2779851 9.064724 0.778 15728640
-1.2720149 9.064724 0.77700001 15728640
-1.2672387 9.064724 0.77399999 15728640
-1.2624626 9.064724 0.76999998 15728640
-1.2570895 9.064724 0.76800001 15728640
-1.2529104 9.064724 0.76499999 15728640
-1.2529104 9.064724 0.74800003 15728640
-1.3400745 9.0664387 0.70300001 15728640
-1.3138059 9.0664387 0.736 15728640
-1.3090298 9.0664387 0.73199999 15728640
-1.3096268 9.0664387 0.71399999 15728640
-1.2779851 9.0664387 0.778 15728640
-1.2720149 9.0664387 0.77700001 15728640
-1.2672387 9.0664387 0.77399999 15728640
-1.2624626 9.0664387 0.76999998 15728640
-1.2570895 9.0664387 0.76800001 15728640
-1.2529104 9.0664387 0.76499999 15728640
-1.2529104 9.0664387 0.74800003 15728640
-1.3400745 9.0681524 0.70300001 15728640
-1.3138059 9.0681524 0.736 15728640
-1.3090298 9.0681524 0.73199999 15728640
-1.3096268 9.0681524 0.71399999 15728640
-1.2779851 9.0681524 0.778 15728640
-1.2720149 9.0681524 0.77700001 15728640
-1.2672387 9.0681524 0.77399999 15728640
-1.2624626 9.0681524 0.76999998 15728640
-1.2570895 9.0681524 0.76800001 15728640
-1.2529104 9.0681524 0.76499999 15728640
-1.2529104 9.0681524 0.74800003 15728640
-1.3400745 9.0698671 0.70300001 15728640
-1.3138059 9.0698671 0.736 15728640
-1.3090298 9.0698671 0.73199999 15728640
-1.3096268 9.0698671 0.71399999 15728640
-1.2779851 9.0698671 0.778 15728640
-1.2720149 9.0698671 0.77700001 15728640
-1.2672387 9.0698671 0.77399999 15728640
-1.2624626 9.0698671 0.76999998 15728640
-1.2570895 9.0698671 0.76800001 15728640
-1.2529104 9.0698671 0.76499999 15728640
-1.2529104 9.0698671 0.74800003 15728640
-1.3400745 9.0715818 0.70300001 15728640
-1.3138059 9.0715818 0.736 15728640
-1.3090298 9.0715818 0.73199999 15728640
-1.3096268 9.0715818 0.71399999 15728640
-1.2779851 9.0715818 0.778 15728640
-1.2720149 9.0715818 0.77700001 15728640
-1.2672387 9.0715818 0.77399999 15728640
-1.2624626 9.0715818 0.76999998 15728640
-1.2570895 9.0715818 0.76800001 15728640
-1.2529104 9.0715818 0.76499999 15728640
-1.2529104 9.0715818 0.74800003 15728640
-1.3400745 9.0732965 0.70300001 15728640
-1.3138059 9.0732965 0.736 15728640
-1.3090298 9.0732965 0.73199999 15728640
-1.3096268 9.0732965 0.71399999 15728640
-1.2779851 9.0732965 0.778 15728640
-1.2720149 9.0732965 0.77700001 15728640
-1.2672387 9.0732965 0.77399999 15728640
-1.2624626 9.0732965 0.76999998 15728640
-1.2570895 9.0732965 0.76800001 15728640
-1.2529104 9.0732965 0.76499999 15728640
-1.2529104 9.0732965 0.74800003 15728640
-1.3400745 9.0750113 0.70300001 15728640
-1.3138059 9.0750113 0.736 15728640
-1.3090298 9.0750113 0.73199999 15728640
-1.3096268 9.0750113 0.71399999 15728640
-1.2779851 9.0750113 0.778 15728640
-1.2720149 9.0750113 0.77700001 15728640
-1.2672387 9.0750113 0.77399999 15728640
-1.2624626 9.0750113 0.76999998 15728640
-1.2570895 9.0750113 0.76800001 15728640
-1.2529104 9.0750113 0.76499999 15728640
-1.2529104 9.0750113 0.74800003 15728640
-1.3400745 9.076725 0.70300001 15728640
-1.3138059 9.076725 0.736 15728640
-1.3090298 9.076725 0.73199999 15728640
-1.3096268 9.076725 0.71399999 15728640
-1.2779851 9.076725 0.778 15728640
-1.2720149 9.076725 0.77700001 15728640
-1.2672387 9.076725 0.77399999 15728640
-1.2624626 9.076725 0.76999998 15728640
-1.2570895 9.076725 0.76800001 15728640
-1.2529104 9.076725 0.76499999 15728640
-1.2529104 9.076725 0.74800003 15728640
-1.3400745 9.0784397 0.70300001 15728640
-1.3138059 9.0784397 0.736 15728640
-1.3090298 9.0784397 0.73199999 15728640
-1.3096268 9.0784397 0.71399999 15728640
-1.2779851 9.0784397 0.778 15728640
-1.2720149 9.0784397 0.77700001 15728640
-1.2672387 9.0784397 0.77399999 15728640
-1.2624626 9.0784397 0.76999998 15728640
-1.2570895 9.0784397 0.76800001 15728640
-1.2529104 9.0784397 0.76499999 15728640
-1.2529104 9.0784397 0.74800003 15728640
-1.3400745 9.0801544 0.70300001 15728640
-1.3138059 9.0801544 0.736 15728640
-1.3090298 9.0801544 0.73199999 15728640
-1.3096268 9.0801544 0.71399999 15728640
-1.2779851 9.0801544 0.778 15728640
-1.2720149 9.0801544 0.77700001 15728640
-1.2672387 9.0801544 0.77399999 15728640
-1.2624626 9.0801544 0.76999998 15728640
-1.2570895 9.0801544 0.76800001 15728640
-1.2529104 9.0801544 0.76499999 15728640
-1.2529104 9.0801544 0.74800003 15728640
-1.3400745 9.0818691 0.70300001 15728640
-1.3138059 9.0818691 0.736 15728640
-1.3090298 9.0818691 0.73199999 15728640
-1.3096268 9.0818691 0.71399999 15728640
-1.2779851 9.0818691 0.778 15728640
-1.2720149 9.0818691 0.77700001 15728640
-1.2672387 9.0818691 0.77399999 15728640
-1.2624626 9.0818691 0.76999998 15728640
-1.2570895 9.0818691 0.76800001 15728640
-1.2529104 9.0818691 0.76499999 15728640
-1.2529104 9.0818691 0.74800003 15728640
-1.3400745 9.0835838 0.70300001 15728640
-1.3400745 9.0852985 0.70300001 15728640
-1.3400745 9.0870123 0.70300001 15728640
-1.3400745 9.088727 0.70300001 15728640
-1.3400745 9.0904417 0.70300001 15728640
-1.3400745 9.0921564 0.70300001 15728640
-1.3400745 9.0938702 0.70300001 15728640
-1.3400745 9.0955849 0.70300001 15728640
-1.3400745 9.0972996 0.70300001 15728640
-1.3400745 9.0990143 0.70300001 15728640
-1.3400745 9.100729 0.70300001 15728640
-1.3400745 9.1024437 0.70300001 15728640
-1.3400745 9.1041574 0.70300001 15728640
-1.3400745 9.1058722 0.70300001 15728640
-1.3400745 9.1075869 0.70300001 15728640
-1.3400745 9.1093016 0.70300001 15728640
-1.3400745 9.1110163 0.70300001 15728640
-1.3400745 9.11273 0.70300001 15728640
-1.3400745 9.1144447 0.70300001 15728640
-1.3400745 9.1161594 0.70300001 15728640
-1.3400745 9.1178741 0.70300001 15728640
-1.3400745 9.1195889 0.70300001 15728640
-1.3400745 9.1213036 0.70300001 15728640
-1.3400745 9.1230173 0.70300001 15728640
-1.3400745 9.124732 0.70300001 15728640
0.0055971146 10.048864 0.81999999 15728640
0.033656836 10.048864 0.76499999 15728640
0.030671716 10.048864 0.78799999 15728640
0.033656836 10.048864 0.796 15728640
0.0055971146 10.050579 0.81999999 15728640
0.033656836 10.050579 0.76499999 15728640
0.030671716 10.050579 0.78799999 15728640
0.033656836 10.050579 0.796 15728640
0.0055971146 10.052294 0.81999999 15728640
0.033656836 10.052294 0.76499999 15728640
0.030671716 10.052294 0.78799999 15728640
0.033656836 10.052294 0.796 15728640
0.0055971146 10.054008 0.81999999 15728640
0.033656836 10.054008 0.76499999 15728640
0.030671716 10.054008 0.78799999 15728640
0.033656836 10.054008 0.796 15728640
0.0055971146 10.055721 0.81999999 15728640
0.033656836 10.055721 0.76499999 15728640
0.030671716 10.055721 0.78799999 15728640
0.033656836 10.055721 0.796 15728640
0.0055971146 10.057437 0.81999999 15728640
0.033656836 10.057437 0.76499999 15728640
0.030671716 10.057437 0.78799999 15728640
0.033656836 10.057437 0.796 15728640
0.0055971146 10.059152 0.81999999 15728640
0.033656836 10.059152 0.76499999 15728640
0.030671716 10.059152 0.78799999 15728640
0.033656836 10.059152 0.796 15728640
0.0055971146 10.060865 0.81999999 15728640
0.033656836 10.060865 0.76499999 15728640
0.030671716 10.060865 0.78799999 15728640
0.033656836 10.060865 0.796 15728640
0.0055971146 10.06258 0.81999999 15728640
0.033656836 10.06258 0.76499999 15728640
0.030671716 10.06258 0.78799999 15728640
0.033656836 10.06258 0.796 15728640
0.0055971146 10.064296 0.81999999 15728640
0.033656836 10.064296 0.76499999 15728640
0.030671716 10.064296 0.78799999 15728640
0.033656836 10.064296 0.796 15728640
0.0055971146 10.06601 0.81999999 15728640
0.033656836 10.06601 0.76499999 15728640
0.030671716 10.06601 0.78799999 15728640
0.033656836 10.06601 0.796 15728640
0.0055971146 10.067724 0.81999999 15728640
0.033656836 10.067724 0.76499999 15728640
0.030671716 10.067724 0.78799999 15728640
0.033656836 10.067724 0.796 15728640
0.0055971146 10.069438 0.81999999 15728640
0.033656836 10.069438 0.76499999 15728640
0.030671716 10.069438 0.78799999 15728640
0.033656836 10.069438 0.796 15728640
-0.0093282461 10.071153 0.81199998 15728640
0.032462716 10.071153 0.72100002 15728640
0.017537475 10.071153 0.77399999 15728640
0.022910476 10.071153 0.77600002 15728640
0.021119595 10.071153 0.796 15728640
0.024104595 10.071153 0.80400002 15728640
0.030671716 10.071153 0.80299997 15728640
-0.0093282461 10.072868 0.81199998 15728640
0.032462716 10.072868 0.72100002 15728640
0.017537475 10.072868 0.77399999 15728640
0.022910476 10.072868 0.77600002 15728640
0.021119595 10.072868 0.796 15728640
0.024104595 10.072868 0.80400002 15728640
0.030671716 10.072868 0.80299997 15728640
-0.0093282461 10.074582 0.81199998 15728640
0.032462716 10.074582 0.72100002 15728640
0.017537475 10.074582 0.77399999 15728640
0.022910476 10.074582 0.77600002 15728640
0.021119595 10.074582 0.796 15728640
0.024104595 10.074582 0.80400002 15728640
0.030671716 10.074582 0.80299997 15728640
-0.0093282461 10.076297 0.81199998 15728640
0.032462716 10.076297 0.72100002 15728640
0.017537475 10.076297 0.77399999 15728640
0.022910476 10.076297 0.77600002 15728640
0.021119595 10.076297 0.796 15728640
0.024104595 10.076297 0.80400002 15728640
0.030671716 10.076297 0.80299997 15728640
-0.0093282461 10.078012 0.81199998 15728640
0.032462716 10.078012 0.72100002 15728640
0.017537475 10.078012 0.77399999 15728640
0.022910476 10.078012 0.77600002 15728640
0.021119595 10.078012 0.796 15728640
0.024104595 10.078012 0.80400002 15728640
0.030671716 10.078012 0.80299997 15728640
-0.0093282461 10.079725 0.81199998 15728640
0.032462716 10.079725 0.72100002 15728640
0.017537475 10.079725 0.77399999 15728640
0.022910476 10.079725 0.77600002 15728640
0.021119595 10.079725 0.796 15728640
0.024104595 10.079725 0.80400002 15728640
0.030671716 10.079725 0.80299997 15728640
-0.0093282461 10.08144 0.81199998 15728640
0.032462716 10.08144 0.72100002 15728640
0.017537475 10.08144 0.77399999 15728640
0.022910476 10.08144 0.77600002 15728640
0.021119595 10.08144 0.796 15728640
0.024104595 10.08144 0.80400002 15728640
0.030671716 10.08144 0.80299997 15728640
-0.0093282461 10.083155 0.81199998 15728640
0.032462716 10.083155 0.72100002 15728640
0.017537475 10.083155 0.77399999 15728640
0.022910476 10.083155 0.77600002 15728640
0.021119595 10.083155 0.796 15728640
0.024104595 10.083155 0.80400002 15728640
0.030671716 10.083155 0.80299997 15728640
-0.0093282461 10.084869 0.81199998 15728640
0.032462716 10.084869 0.72100002 15728640
0.017537475 10.084869 0.77399999 15728640
0.022910476 10.084869 0.77600002 15728640
0.021119595 10.084869 0.796 15728640
0.024104595 10.084869 0.80400002 15728640
0.030671716 10.084869 0.80299997 15728640
-0.0093282461 10.086584 0.81199998 15728640
0.032462716 10.086584 0.72100002 15728640
0.017537475 10.086584 0.77399999 15728640
0.022910476 10.086584 0.77600002 15728640
0.021119595 10.086584 0.796 15728640
0.024104595 10.086584 0.80400002 15728640
0.030671716 10.086584 0.80299997 15728640
-0.0093282461 10.088299 0.81199998 15728640
0.032462716 10.088299 0.72100002 15728640
0.017537475 10.088299 0.77399999 15728640
0.022910476 10.088299 0.77600002 15728640
0.021119595 10.088299 0.796 15728640
0.024104595 10.088299 0.80400002 15728640
0.030671716 10.088299 0.80299997 15728640
-0.0093282461 10.090014 0.81199998 15728640
0.032462716 10.090014 0.72100002 15728640
0.017537475 10.090014 0.77399999 15728640
0.022910476 10.090014 0.77600002 15728640
0.021119595 10.090014 0.796 15728640
0.024104595 10.090014 0.80400002 15728640
0.030671716 10.090014 0.80299997 15728640
-0.025447607 10.091728 0.86799997 15728640
0.025298595 10.091728 0.755 15728640
0.021119595 10.091728 0.78200001 15728640
0.020522475 10.091728 0.79799998 15728640
0.025895596 10.091728 0.80000001 15728640
0.031268597 10.091728 0.801 15728640
-0.025447607 10.093441 0.86799997 15728640
0.025298595 10.093441 0.755 15728640
0.021119595 10.093441 0.78200001 15728640
0.020522475 10.093441 0.79799998 15728640
0.025895596 10.093441 0.80000001 15728640
0.031268597 10.093441 0.801 15728640
-0.025447607 10.095157 0.86799997 15728640
0.025298595 10.095157 0.755 15728640
0.021119595 10.095157 0.78200001 15728640
0.020522475 10.095157 0.79799998 15728640
0.025895596 10.095157 0.80000001 15728640
0.031268597 10.095157 0.801 15728640
-0.025447607 10.096871 0.86799997 15728640
0.025298595 10.096871 0.755 15728640
0.021119595 10.096871 0.78200001 15728640
0.020522475 10.096871 0.79799998 15728640
0.025895596 10.096871 0.80000001 15728640
0.031268597 10.096871 0.801 15728640
-0.025447607 10.098585 0.86799997 15728640
0.025298595 10.098585 0.755 15728640
0.021119595 10.098585 0.78200001 15728640
0.020522475 10.098585 0.79799998 15728640
0.025895596 10.098585 0.80000001 15728640
0.031268597 10.098585 0.801 15728640
-0.025447607 10.1003 0.86799997 15728640
0.025298595 10.1003 0.755 15728640
0.021119595 10.1003 0.78200001 15728640
0.020522475 10.1003 0.79799998 15728640
0.025895596 10.1003 0.80000001 15728640
0.031268597 10.1003 0.801 15728640
-0.025447607 10.102015 0.86799997 15728640
0.025298595 10.102015 0.755 15728640
0.021119595 10.102015 0.78200001 15728640
0.020522475 10.102015 0.79799998 15728640
0.025895596 10.102015 0.80000001 15728640
0.031268597 10.102015 0.801 15728640
-0.025447607 10.103729 0.86799997 15728640
0.025298595 10.103729 0.755 15728640
0.021119595 10.103729 0.78200001 15728640
0.020522475 10.103729 0.79799998 15728640
0.025895596 10.103729 0.80000001 15728640
0.031268597 10.103729 0.801 15728640
-0.025447607 10.105444 0.86799997 15728640
0.025298595 10.105444 0.755 15728640
0.021119595 10.105444 0.78200001 15728640
0.020522475 10.105444 0.79799998 15728640
0.025895596 10.105444 0.80000001 15728640
0.031268597 10.105444 0.801 15728640
-0.025447607 10.107158 0.86799997 15728640
0.025298595 10.107158 0.755 15728640
0.021119595 10.107158 0.78200001 15728640
0.020522475 10.107158 0.79799998 15728640
0.025895596 10.107158 0.80000001 15728640
0.031268597 10.107158 0.801 15728640
-0.025447607 10.108872 0.86799997 15728640
0.025298595 10.108872 0.755 15728640
0.021119595 10.108872 0.78200001 15728640
0.020522475 10.108872 0.79799998 15728640
0.025895596 10.108872 0.80000001 15728640
0.031268597 10.108872 0.801 15728640
-0.025447607 10.110588 0.86799997 15728640
0.025298595 10.110588 0.755 15728640
0.021119595 10.110588 0.78200001 15728640
0.020522475 10.110588 0.79799998 15728640
0.025895596 10.110588 0.80000001 15728640
0.031268597 10.110588 0.801 15728640
-1.1735075 0.67895401 1.04 15728640
-1.1735075 0.68066865 1.04 15728640
-1.1735075 0.68238336 1.04 15728640
-1.1735075 0.68409753 1.04 15728640
-1.1735075 0.68581212 1.04 15728640
-1.1735075 0.68752682 1.04 15728640
-1.1735075 0.68924153 1.04 15728640
-1.1735075 0.69095564 1.04 15728640
-1.1735075 0.69267035 1.04 15728640
-1.1735075 0.69438505 1.04 15728640
-1.1735075 0.69609964 1.04 15728640
-1.1735075 0.69781381 1.04 15728640
-1.2039552 0.73724818 1.016 15728640
-1.2051492 0.73724818 1 15728640
-1.2039552 0.73724818 0.991 15728640
-1.1967911 0.73724818 0.99400002 15728640
-1.1884328 0.73724818 1.002 15728640
-1.1896268 0.73724818 0.986 15728640
-1.1860447 0.73724818 0.98199999 15728640
-1.2039552 0.73896283 1.016 15728640
-1.2051492 0.73896283 1 15728640
-1.2039552 0.73896283 0.991 15728640
-1.1967911 0.73896283 0.99400002 15728640
-1.1884328 0.73896283 1.002 15728640
-1.1896268 0.73896283 0.986 15728640
-1.1860447 0.73896283 0.98199999 15728640
-1.2039552 0.74067754 1.016 15728640
-1.2051492 0.74067754 1 15728640
-1.2039552 0.74067754 0.991 15728640
-1.1967911 0.74067754 0.99400002 15728640
-1.1884328 0.74067754 1.002 15728640
-1.1896268 0.74067754 0.986 15728640
-1.1860447 0.74067754 0.98199999 15728640
-1.2039552 0.74239165 1.016 15728640
-1.2051492 0.74239165 1 15728640
-1.2039552 0.74239165 0.991 15728640
-1.1967911 0.74239165 0.99400002 15728640
-1.1884328 0.74239165 1.002 15728640
-1.1896268 0.74239165 0.986 15728640
-1.1860447 0.74239165 0.98199999 15728640
-1.2039552 0.74410635 1.016 15728640
-1.2051492 0.74410635 1 15728640
-1.2039552 0.74410635 0.991 15728640
-1.1967911 0.74410635 0.99400002 15728640
-1.1884328 0.74410635 1.002 15728640
-1.1896268 0.74410635 0.986 15728640
-1.1860447 0.74410635 0.98199999 15728640
-1.2039552 0.745821 1.016 15728640
-1.2051492 0.745821 1 15728640
-1.2039552 0.745821 0.991 15728640
-1.1967911 0.745821 0.99400002 15728640
-1.1884328 0.745821 1.002 15728640
-1.1896268 0.745821 0.986 15728640
-1.1860447 0.745821 0.98199999 15728640
-1.2039552 0.74753511 1.016 15728640
-1.2051492 0.74753511 1 15728640
-1.2039552 0.74753511 0.991 15728640
-1.1967911 0.74753511 0.99400002 15728640
-1.1884328 0.74753511 1.002 15728640
-1.1896268 0.74753511 0.986 15728640
-1.1860447 0.74753511 0.98199999 15728640
-1.2039552 0.74924982 1.016 15728640
-1.2051492 0.74924982 1 15728640
-1.2039552 0.74924982 0.991 15728640
-1.1967911 0.74924982 0.99400002 15728640
-1.1884328 0.74924982 1.002 15728640
-1.1896268 0.74924982 0.986 15728640
-1.1860447 0.74924982 0.98199999 15728640
-1.2039552 0.75096452 1.016 15728640
-1.2051492 0.75096452 1 15728640
-1.2039552 0.75096452 0.991 15728640
-1.1967911 0.75096452 0.99400002 15728640
-1.1884328 0.75096452 1.002 15728640
-1.1896268 0.75096452 0.986 15728640
-1.1860447 0.75096452 0.98199999 15728640
-1.2039552 0.75267917 1.016 15728640
-1.2051492 0.75267917 1 15728640
-1.2039552 0.75267917 0.991 15728640
-1.1967911 0.75267917 0.99400002 15728640
-1.1884328 0.75267917 1.002 15728640
-1.1896268 0.75267917 0.986 15728640
-1.1860447 0.75267917 0.98199999 15728640
-1.2039552 0.75439328 1.016 15728640
-1.2051492 0.75439328 1 15728640
-1.2039552 0.75439328 0.991 15728640
-1.1967911 0.75439328 0.99400002 15728640
-1.1884328 0.75439328 1.002 15728640
-1.1896268 0.75439328 0.986 15728640
-1.1860447 0.75439328 0.98199999 15728640
-1.2039552 0.75610805 1.016 15728640
-1.2051492 0.75610805 1 15728640
-1.2039552 0.75610805 0.991 15728640
-1.1967911 0.75610805 0.99400002 15728640
-1.1884328 0.75610805 1.002 15728640
-1.1896268 0.75610805 0.986 15728640
-1.1860447 0.75610805 0.98199999 15728640
-1.2039552 0.75782263 1.016 15728640
-1.1979851 0.75782263 1.017 15728640
-1.1955969 0.75782263 1.011 15728640
-1.1926119 0.75782263 1.005 15728640
-1.1884328 0.75782263 1.001 15728640
-1.1872387 0.75782263 0.99199998 15728640
-1.1848507 0.75782263 0.98400003 15728640
-1.1890298 0.75782263 0.96100003 15728640
-1.2039552 0.75953674 1.016 15728640
-1.1979851 0.75953674 1.017 15728640
-1.1955969 0.75953674 1.011 15728640
-1.1926119 0.75953674 1.005 15728640
-1.1884328 0.75953674 1.001 15728640
-1.1872387 0.75953674 0.99199998 15728640
-1.1848507 0.75953674 0.98400003 15728640
-1.1890298 0.75953674 0.96100003 15728640
-1.2039552 0.76125151 1.016 15728640
-1.1979851 0.76125151 1.017 15728640
-1.1955969 0.76125151 1.011 15728640
-1.1926119 0.76125151 1.005 15728640
-1.1884328 0.76125151 1.001 15728640
-1.1872387 0.76125151 0.99199998 15728640
-1.1848507 0.76125151 0.98400003 15728640
-1.1890298 0.76125151 0.96100003 15728640
-1.2039552 0.76296616 1.016 15728640
-1.1979851 0.76296616 1.017 15728640
-1.1955969 0.76296616 1.011 15728640
-1.1926119 0.76296616 1.005 15728640
-1.1884328 0.76296616 1.001 15728640
-1.1872387 0.76296616 0.99199998 15728640
-1.1848507 0.76296616 0.98400003 15728640
-1.1890298 0.76296616 0.96100003 15728640
-1.2039552 0.76468086 1.016 15728640
-1.1979851 0.76468086 1.017 15728640
-1.1955969 0.76468086 1.011 15728640
-1.1926119 0.76468086 1.005 15728640
-1.1884328 0.76468086 1.001 15728640
-1.1872387 0.76468086 0.99199998 15728640
-1.1848507 0.76468086 0.98400003 15728640
-1.1890298 0.76468086 0.96100003 15728640
-1.2039552 0.76639497 1.016 15728640
-1.1979851 0.76639497 1.017 15728640
-1.1955969 0.76639497 1.011 15728640
-1.1926119 0.76639497 1.005 15728640
-1.1884328 0.76639497 1.001 15728640
-1.1872387 0.76639497 0.99199998 15728640
-1.1848507 0.76639497 0.98400003 15728640
-1.1890298 0.76639497 0.96100003 15728640
-1.2039552 0.76810968 1.016 15728640
-1.1979851 0.76810968 1.017 15728640
-1.1955969 0.76810968 1.011 15728640
-1.1926119 0.76810968 1.005 15728640
-1.1884328 0.76810968 1.001 15728640
-1.1872387 0.76810968 0.99199998 15728640
-1.1848507 0.76810968 0.98400003 15728640
-1.1890298 0.76810968 0.96100003 15728640
-1.2039552 0.76982427 1.016 15728640
-1.1979851 0.76982427 1.017 15728640
-1.1955969 0.76982427 1.011 15728640
-1.1926119 0.76982427 1.005 15728640
-1.1884328 0.76982427 1.001 15728640
-1.1872387 0.76982427 0.99199998 15728640
-1.1848507 0.76982427 0.98400003 15728640
-1.1890298 0.76982427 0.96100003 15728640
-1.2224627 0.77153903 0.97100002 15728640
-1.1991791 0.77153903 1.015 15728640
-1.1967911 0.77153903 1.007 15728640
-1.1926119 0.77153903 1.005 15728640
-1.2224627 0.77325314 0.97100002 15728640
-1.1991791 0.77325314 1.015 15728640
-1.1967911 0.77325314 1.007 15728640
-1.1926119 0.77325314 1.005 15728640
-1.2224627 0.77496779 0.97100002 15728640
-1.1991791 0.77496779 1.015 15728640
-1.1967911 0.77496779 1.007 15728640
-1.1926119 0.77496779 1.005 15728640
-1.2224627 0.7766825 0.97100002 15728640
-1.1991791 0.7766825 1.015 15728640
-1.1967911 0.7766825 1.007 15728640
-1.1926119 0.7766825 1.005 15728640
-1.2224627 0.7783972 0.97100002 15728640
-1.1991791 0.7783972 1.015 15728640
-1.1967911 0.7783972 1.007 15728640
-1.1926119 0.7783972 1.005 15728640
-1.2224627 0.78011131 0.97100002 15728640
-1.1991791 0.78011131 1.015 15728640
-1.1967911 0.78011131 1.007 15728640
-1.1926119 0.78011131 1.005 15728640
-1.2224627 0.78182602 0.97100002 15728640
-1.1991791 0.78182602 1.015 15728640
-1.1967911 0.78182602 1.007 15728640
-1.1926119 0.78182602 1.005 15728640
-1.2224627 0.78354067 0.97100002 15728640
-1.1991791 0.78354067 1.015 15728640
-1.1967911 0.78354067 1.007 15728640
-1.1926119 0.78354067 1.005 15728640
-1.2224627 0.78525478 0.97100002 15728640
-1.1991791 0.78525478 1.015 15728640
-1.1967911 0.78525478 1.007 15728640
-1.1926119 0.78525478 1.005 15728640
-1.2224627 0.78696954 0.97100002 15728640
-1.1991791 0.78696954 1.015 15728640
-1.1967911 0.78696954 1.007 15728640
-1.1926119 0.78696954 1.005 15728640
-1.2224627 0.78868413 0.97100002 15728640
-1.1991791 0.78868413 1.015 15728640
-1.1967911 0.78868413 1.007 15728640
-1.1926119 0.78868413 1.005 15728640
-1.2224627 0.7903989 0.97100002 15728640
-1.1991791 0.7903989 1.015 15728640
-1.1967911 0.7903989 1.007 15728640
-1.1926119 0.7903989 1.005 15728640
-0.69231343 3.0210028 0.70899999 15728640
-0.68992531 3.0210028 0.65399998 15728640
-0.68574625 3.0210028 0.64499998 15728640
-0.68097007 3.0210028 0.64099997 15728640
-0.67679101 3.0210028 0.64200002 15728640
-0.67201483 3.0210028 0.63499999 15728640
-0.69231343 3.0227175 0.70899999 15728640
-0.68992531 3.0227175 0.65399998 15728640
-0.68574625 3.0227175 0.64499998 15728640
-0.68097007 3.0227175 0.64099997 15728640
-0.67679101 3.0227175 0.64200002 15728640
-0.67201483 3.0227175 0.63499999 15728640
-0.69231343 3.0244322 0.70899999 15728640
-0.68992531 3.0244322 0.65399998 15728640
-0.68574625 3.0244322 0.64499998 15728640
-0.68097007 3.0244322 0.64099997 15728640
-0.67679101 3.0244322 0.64200002 15728640
-0.67201483 3.0244322 0.63499999 15728640
-0.69231343 3.0261464 0.70899999 15728640
-0.68992531 3.0261464 0.65399998 15728640
-0.68574625 3.0261464 0.64499998 15728640
-0.68097007 3.0261464 0.64099997 15728640
-0.67679101 3.0261464 0.64200002 15728640
-0.67201483 3.0261464 0.63499999 15728640
-0.70604473 3.0278611 0.597 15728640
-0.69470143 3.0278611 0.77200001 15728640
-0.69470143 3.0278611 0.65499997 15728640
-0.68992531 3.0278611 0.65899998 15728640
-0.68514919 3.0278611 0.65700001 15728640
-0.68097007 3.0278611 0.65700001 15728640
-0.67619395 3.0278611 0.65499997 15728640
-0.67201483 3.0278611 0.653 15728640
-0.70604473 3.0295758 0.597 15728640
-0.69470143 3.0295758 0.77200001 15728640
-0.69470143 3.0295758 0.65499997 15728640
-0.68992531 3.0295758 0.65899998 15728640
-0.68514919 3.0295758 0.65700001 15728640
-0.68097007 3.0295758 0.65700001 15728640
-0.67619395 3.0295758 0.65499997 15728640
-0.67201483 3.0295758 0.653 15728640
-0.70604473 3.0312903 0.597 15728640
-0.69470143 3.0312903 0.77200001 15728640
-0.69470143 3.0312903 0.65499997 15728640
-0.68992531 3.0312903 0.65899998 15728640
-0.68514919 3.0312903 0.65700001 15728640
-0.68097007 3.0312903 0.65700001 15728640
-0.67619395 3.0312903 0.65499997 15728640
-0.67201483 3.0312903 0.653 15728640
-0.70604473 3.0330048 0.597 15728640
-0.69470143 3.0330048 0.77200001 15728640
-0.69470143 3.0330048 0.65499997 15728640
-0.68992531 3.0330048 0.65899998 15728640
-0.68514919 3.0330048 0.65700001 15728640
-0.68097007 3.0330048 0.65700001 15728640
-0.67619395 3.0330048 0.65499997 15728640
-0.67201483 3.0330048 0.653 15728640
-0.70604473 3.0347192 0.597 15728640
-0.69470143 3.0347192 0.77200001 15728640
-0.69470143 3.0347192 0.65499997 15728640
-0.68992531 3.0347192 0.65899998 15728640
-0.68514919 3.0347192 0.65700001 15728640
-0.68097007 3.0347192 0.65700001 15728640
-0.67619395 3.0347192 0.65499997 15728640
-0.67201483 3.0347192 0.653 15728640
-0.70604473 3.0364342 0.597 15728640
-0.69470143 3.0364342 0.77200001 15728640
-0.69470143 3.0364342 0.65499997 15728640
-0.68992531 3.0364342 0.65899998 15728640
-0.68514919 3.0364342 0.65700001 15728640
-0.68097007 3.0364342 0.65700001 15728640
-0.67619395 3.0364342 0.65499997 15728640
-0.67201483 3.0364342 0.653 15728640
-0.70604473 3.0381482 0.597 15728640
-0.69470143 3.0381482 0.77200001 15728640
-0.69470143 3.0381482 0.65499997 15728640
-0.68992531 3.0381482 0.65899998 15728640
-0.68514919 3.0381482 0.65700001 15728640
-0.68097007 3.0381482 0.65700001 15728640
-0.67619395 3.0381482 0.65499997 15728640
-0.67201483 3.0381482 0.653 15728640
-0.70604473 3.0398626 0.597 15728640
-0.69470143 3.0398626 0.77200001 15728640
-0.69470143 3.0398626 0.65499997 15728640
-0.68992531 3.0398626 0.65899998 15728640
-0.68514919 3.0398626 0.65700001 15728640
-0.68097007 3.0398626 0.65700001 15728640
-0.67619395 3.0398626 0.65499997 15728640
-0.67201483 3.0398626 0.653 15728640
-0.70604473 3.0415773 0.597 15728640
-0.69470143 3.0415773 0.77200001 15728640
-0.69470143 3.0415773 0.65499997 15728640
-0.68992531 3.0415773 0.65899998 15728640
-0.68514919 3.0415773 0.65700001 15728640
-0.68097007 3.0415773 0.65700001 15728640
-0.67619395 3.0415773 0.65499997 15728640
-0.67201483 3.0415773 0.653 15728640
-0.70604473 3.043292 0.597 15728640
-0.69470143 3.043292 0.77200001 15728640
-0.69470143 3.043292 0.65499997 15728640
-0.68992531 3.043292 0.65899998 15728640
-0.68514919 3.043292 0.65700001 15728640
-0.68097007 3.043292 0.65700001 15728640
-0.67619395 3.043292 0.65499997 15728640
-0.67201483 3.043292 0.653 15728640
-0.70604473 3.0450063 0.597 15728640
-0.69470143 3.0450063 0.77200001 15728640
-0.69470143 3.0450063 0.65499997 15728640
-0.68992531 3.0450063 0.65899998 15728640
-0.68514919 3.0450063 0.65700001 15728640
-0.68097007 3.0450063 0.65700001 15728640
-0.67619395 3.0450063 0.65499997 15728640
-0.67201483 3.0450063 0.653 15728640
-0.70604473 3.046721 0.597 15728640
-0.69470143 3.046721 0.77200001 15728640
-0.69470143 3.046721 0.65499997 15728640
-0.68992531 3.046721 0.65899998 15728640
-0.68514919 3.046721 0.65700001 15728640
-0.68097007 3.046721 0.65700001 15728640
-0.67619395 3.046721 0.65499997 15728640
-0.67201483 3.046721 0.653 15728640
-0.70604473 3.0484357 0.597 15728640
-0.69470143 3.0484357 0.77200001 15728640
-0.69470143 3.0484357 0.65499997 15728640
-0.68992531 3.0484357 0.65899998 15728640
-0.68514919 3.0484357 0.65700001 15728640
-0.68097007 3.0484357 0.65700001 15728640
-0.67619395 3.0484357 0.65499997 15728640
-0.67201483 3.0484357 0.653 15728640
-0.68873131 3.0501502 0.54400003 15728640
-0.68873131 3.0518646 0.54400003 15728640
-0.68873131 3.0535791 0.54400003 15728640
-0.68694025 3.0964427 0.60900003 15728640
-0.68694025 3.0981569 0.60900003 15728640
-0.68694025 3.0998712 0.60900003 15728640
-0.68694025 3.1015859 0.60900003 15728640
-0.68694025 3.1033006 0.60900003 15728640
-0.68694025 3.1050148 0.60900003 15728640
-0.68694025 3.1067295 0.60900003 15728640
-0.68694025 3.1084442 0.60900003 15728640
-0.68694025 3.1101587 0.60900003 15728640
-0.68694025 3.1118731 0.60900003 15728640
-0.68694025 3.1135876 0.60900003 15728640
-0.68694025 3.1153026 0.60900003 15728640
-0.64992535 3.1393056 0.55000001 15728640
-0.63977611 3.1393056 0.62900001 15728640
-0.64992535 3.1410203 0.55000001 15728640
-0.63977611 3.1410203 0.62900001 15728640
-0.64992535 3.1427345 0.55000001 15728640
-0.63977611 3.1427345 0.62900001 15728640
-0.64992535 3.1444492 0.55000001 15728640
-0.63977611 3.1444492 0.62900001 15728640
-0.64992535 3.1461639 0.55000001 15728640
-0.63977611 3.1461639 0.62900001 15728640
-0.64992535 3.1478784 0.55000001 15728640
-0.63977611 3.1478784 0.62900001 15728640
-0.64992535 3.1495929 0.55000001 15728640
-0.63977611 3.1495929 0.62900001 15728640
-0.65470147 3.1513073 0.56699997 15728640
-0.64455223 3.1513073 0.63800001 15728640
-0.63977611 3.1513073 0.63099998 15728640
-0.63559699 3.1513073 0.62300003 15728640
-0.63082087 3.1513073 0.616 15728640
-0.65470147 3.1530223 0.56699997 15728640
-0.64455223 3.1530223 0.63800001 15728640
-0.63977611 3.1530223 0.63099998 15728640
-0.63559699 3.1530223 0.62300003 15728640
-0.63082087 3.1530223 0.616 15728640
-0.65470147 3.1547363 0.56699997 15728640
-0.64455223 3.1547363 0.63800001 15728640
-0.63977611 3.1547363 0.63099998 15728640
-0.63559699 3.1547363 0.62300003 15728640
-0.63082087 3.1547363 0.616 15728640
-0.65470147 3.1564507 0.56699997 15728640
-0.64455223 3.1564507 0.63800001 15728640
-0.63977611 3.1564507 0.63099998 15728640
-0.63559699 3.1564507 0.62300003 15728640
-0.63082087 3.1564507 0.616 15728640
-0.65470147 3.1581655 0.56699997 15728640
-0.64455223 3.1581655 0.63800001 15728640
-0.63977611 3.1581655 0.63099998 15728640
-0.63559699 3.1581655 0.62300003 15728640
-0.63082087 3.1581655 0.616 15728640
-0.65470147 3.1598802 0.56699997 15728640
-0.64455223 3.1598802 0.63800001 15728640
-0.63977611 3.1598802 0.63099998 15728640
-0.63559699 3.1598802 0.62300003 15728640
-0.63082087 3.1598802 0.616 15728640
-0.65470147 3.1615944 0.56699997 15728640
-0.64455223 3.1615944 0.63800001 15728640
-0.63977611 3.1615944 0.63099998 15728640
-0.63559699 3.1615944 0.62300003 15728640
-0.63082087 3.1615944 0.616 15728640
-0.65470147 3.1633091 0.56699997 15728640
-0.64455223 3.1633091 0.63800001 15728640
-0.63977611 3.1633091 0.63099998 15728640
-0.63559699 3.1633091 0.62300003 15728640
-0.63082087 3.1633091 0.616 15728640
-0.64514923 3.1650238 0.52899998 15728640
-0.64514923 3.166738 0.52899998 15728640
-0.64514923 3.1684527 0.52899998 15728640
-0.64514923 3.1701672 0.52899998 15728640
-0.64514923 3.1718817 0.52899998 15728640
-0.64514923 3.1735961 0.52899998 15728640
-0.64514923 3.1753111 0.52899998 15728640
-0.64514923 3.1770253 0.52899998 15728640
-0.64514923 3.17874 0.52899998 15728640
-0.64514923 3.1804543 0.52899998 15728640
-0.64514923 3.182169 0.52899998 15728640
-0.53888047 6.3677673 0.55199999 15728640
-0.51619399 6.3677673 0.57099998 15728640
-0.53888047 6.369482 0.55199999 15728640
-0.51619399 6.369482 0.57099998 15728640
-0.53888047 6.3711958 0.55199999 15728640
-0.51619399 6.3711958 0.57099998 15728640
-0.53888047 6.3729105 0.55199999 15728640
-0.51619399 6.3729105 0.57099998 15728640
-0.53888047 6.3746252 0.55199999 15728640
-0.51619399 6.3746252 0.57099998 15728640
-0.53888047 6.3763399 0.55199999 15728640
-0.51619399 6.3763399 0.57099998 15728640
-0.53888047 6.3780541 0.55199999 15728640
-0.51619399 6.3780541 0.57099998 15728640
-0.53888047 6.3797684 0.55199999 15728640
-0.51619399 6.3797684 0.57099998 15728640
-0.53888047 6.3814831 0.55199999 15728640
-0.51619399 6.3814831 0.57099998 15728640
-0.53888047 6.3831978 0.55199999 15728640
-0.51619399 6.3831978 0.57099998 15728640
-0.53888047 6.384912 0.55199999 15728640
-0.51619399 6.384912 0.57099998 15728640
-0.53888047 6.3866272 0.55199999 15728640
-0.51619399 6.3866272 0.57099998 15728640
-0.53888047 6.3883419 0.55199999 15728640
-0.51619399 6.3883419 0.57099998 15728640
-0.51261187 6.3900557 0.66600001 15728640
-0.51261187 6.3917704 0.66600001 15728640
-0.51261187 6.3934851 0.66600001 15728640
-0.51261187 6.3951988 0.66600001 15728640
-0.51261187 6.396914 0.66600001 15728640
-0.51261187 6.3986282 0.66600001 15728640
-0.51261187 6.4003429 0.66600001 15728640
-0.51261187 6.4020576 0.66600001 15728640
-0.51261187 6.4037719 0.66600001 15728640
-0.51261187 6.4054861 0.66600001 15728640
-0.51261187 6.4072018 0.66600001 15728640
-0.51261187 6.4089155 0.66600001 15728640
-0.52694023 6.4106302 0.51099998 15728640
-0.48813426 6.4106302 0.58399999 15728640
-0.45350742 6.4106302 0.62699997 15728640
-0.52694023 6.4123449 0.51099998 15728640
-0.48813426 6.4123449 0.58399999 15728640
-0.45350742 6.4123449 0.62699997 15728640
-0.52694023 6.4140587 0.51099998 15728640
-0.48813426 6.4140587 0.58399999 15728640
-0.45350742 6.4140587 0.62699997 15728640
-0.52694023 6.4157739 0.51099998 15728640
-0.48813426 6.4157739 0.58399999 15728640
-0.45350742 6.4157739 0.62699997 15728640
-0.52694023 6.4174881 0.51099998 15728640
-0.48813426 6.4174881 0.58399999 15728640
-0.45350742 6.4174881 0.62699997 15728640
-0.52694023 6.4192028 0.51099998 15728640
-0.48813426 6.4192028 0.58399999 15728640
-0.45350742 6.4192028 0.62699997 15728640
-0.52694023 6.4209175 0.51099998 15728640
-0.48813426 6.4209175 0.58399999 15728640
-0.45350742 6.4209175 0.62699997 15728640
-0.52694023 6.4226317 0.51099998 15728640
-0.48813426 6.4226317 0.58399999 15728640
-0.45350742 6.4226317 0.62699997 15728640
-0.52694023 6.424346 0.51099998 15728640
-0.48813426 6.424346 0.58399999 15728640
-0.45350742 6.424346 0.62699997 15728640
-0.52694023 6.4260616 0.51099998 15728640
-0.48813426 6.4260616 0.58399999 15728640
-0.45350742 6.4260616 0.62699997 15728640
-0.52694023 6.4277754 0.51099998 15728640
-0.48813426 6.4277754 0.58399999 15728640
-0.45350742 6.4277754 0.62699997 15728640
-0.52694023 6.4294901 0.51099998 15728640
-0.48813426 6.4294901 0.58399999 15728640
-0.45350742 6.4294901 0.62699997 15728640
-0.52694023 6.4312048 0.51099998 15728640
-0.48813426 6.4312048 0.58399999 15728640
-0.45350742 6.4312048 0.62699997 15728640
-0.52097011 6.4329185 0.57099998 15728640
-0.51201487 6.4329185 0.64999998 15728640
-0.48455215 6.4329185 0.602 15728640
-0.46246266 6.4329185 0.57099998 15728640
-0.52097011 6.4346337 0.57099998 15728640
-0.51201487 6.4346337 0.64999998 15728640
-0.48455215 6.4346337 0.602 15728640
-0.46246266 6.4346337 0.57099998 15728640
-0.52097011 6.436348 0.57099998 15728640
-0.51201487 6.436348 0.64999998 15728640
-0.48455215 6.436348 0.602 15728640
-0.46246266 6.436348 0.57099998 15728640
