# .PCD v0.7 - Point Cloud Data file format
VERSION 0.7
FIELDS x y z
SIZE 4 4 4
TYPE F F F
COUNT 1 1 1
WIDTH 1834
HEIGHT 1
VIEWPOINT 0 0 0 1 0 0 0
POINTS 1834
DATA ascii
0.178378 0.135411 0.413516 
0.142366 0.116383 0.415129 
-0.308068 -0.113354 0.523296 
0.209374 0.148969 0.382137 
-0.112873 -0.0158804 0.45433 
-0.169119 -0.0454325 0.4587 
1.72047 0.917873 0 
1.72047 0.917873 0 
0.0851209 0.081826 0.372213 
0.0639296 0.0701975 0.368696 
0.0471127 0.0607889 0.364026 
0.198187 0.137438 0.323517 
0.183249 0.129041 0.318983 
0.0326307 0.0509391 0.341784 
1.72047 0.917873 0 
1.72047 0.917873 0 
1.72047 0.917873 0 
1.72047 0.917873 0 
1.72047 0.917873 0 
0.0588835 0.0596263 0.286731 
-0.266971 -0.109643 0.333082 
1.72047 0.917873 0 
-0.677596 -0.32425 0.37809 
0.180938 0.119701 0.235097 
0.182109 0.119566 0.227297 
0.177149 0.116247 0.220389 
0.180141 0.117057 0.212342 
0.206071 0.129806 0.201281 
0.214421 0.133424 0.192731 
0.189309 0.119603 0.188385 
0.180084 0.114049 0.181919 
0.183232 0.114947 0.173965 
0.183764 0.114481 0.16633 
0.185208 0.114493 0.158609 
0.184035 0.113134 0.151162 
0.180243 0.110402 0.143952 
0.197666 0.118797 0.134828 
0.208943 0.123982 0.126392 
0.21672 0.127337 0.118344 
0.197152 0.11631 0.112392 
0.200572 0.117371 0.104665 
0.200488 0.116589 0.0971974 
0.2022 0.116753 0.0896235 
0.206591 0.118334 0.0819218 
0.133286 0.0788464 0.078086 
0.0617792 0.0402389 0.0734495 
0.0468325 0.0315156 0.065883 
1.72047 0.917873 0 
1.72047 0.917873 0 
0.147888 0.0827356 0.0387045 
0.152486 0.084413 0.0308775 
0.149168 0.081883 0.0232108 
0.149412 0.081246 0.0154741 
0.154098 0.0829767 0.0077154 
0.149107 0.079549 1.58814e-15 
0.148559 0.0784883 -0.00774583 
0.155096 0.0812139 -0.0154307 
0.147553 0.0764132 -0.023263 
0.145333 0.0744549 -0.0310688 
0.14755 0.0748722 -0.0387914 
0.144511 0.0724716 -0.0466524 
0.147668 0.0733948 -0.0543343 
0.14469 0.0710241 -0.0622325 
0.146146 0.0710344 -0.0699687 
0.144112 0.0691671 -0.0778687 
0.145627 0.0692102 -0.0856021 
0.143655 0.0673737 -0.0935337 
0.146108 0.0679239 -0.101207 
0.152102 0.0703896 -0.108618 
0.144955 0.0657533 -0.116953 
0.142232 0.0635047 -0.125015 
0.141296 0.0622213 -0.132962 
0.143898 0.062855 -0.140612 
0.141271 0.0606534 -0.148736 
0.143931 0.0613209 -0.156372 
0.14137 0.0591512 -0.164534 
0.145837 0.0608043 -0.171963 
0.139844 0.0567632 -0.180553 
0.140875 0.056546 -0.188375 
0.138446 0.0544408 -0.196628 
0.150876 0.0604496 -0.202994 
0.146763 0.0574255 -0.211468 
0.140945 0.0534644 -0.220234 
0.139518 0.0519021 -0.228436 
0.136386 0.0494032 -0.236919 
0.136766 0.0488277 -0.244903 
0.116344 0.0368273 -0.25622 
1.72047 0.917873 -0 
0.138091 0.0472046 -0.26888 
0.127339 0.0404993 -0.27885 
1.72047 0.917873 -0 
0.140561 0.0462141 -0.292729 
0.17397 0.0638792 -0.294486 
0.173705 0.0629648 -0.302499 
0.174333 0.0625444 -0.310351 
0.177576 0.0635715 -0.317674 
0.174822 0.0612789 -0.326245 
0.177262 0.0618637 -0.333737 
0.171145 0.0577002 -0.343116 
0.174506 0.0587966 -0.350426 
0.177035 0.0594336 -0.357912 
0.177024 0.058659 -0.365991 
0.177046 0.0579022 -0.374081 
1.72047 0.917873 -0 
1.72047 0.917873 -0 
1.72047 0.917873 -0 
1.72047 0.917873 -0 
1.72047 0.917873 -0 
1.72047 0.917873 -0 
1.72047 0.917873 -0 
1.72047 0.917873 -0 
1.72047 0.917873 -0 
0.22212 0.0755339 -0.442769 
1.72047 0.917873 -0 
1.72047 0.917873 -0 
0.224036 0.0743624 -0.466456 
1.72047 0.917873 -0 
0.24084 0.0823511 -0.477315 
0.263068 0.0941721 -0.478106 
0.286937 0.106943 -0.47813 
0.308264 0.118298 -0.478776 
0.32956 0.129657 -0.479221 
0.355816 0.14385 -0.477719 
0.370392 0.151439 -0.480102 
1.72047 0.917873 -0 
1.72047 0.917873 -0 
0.433049 0.185066 -0.479369 
0.455788 0.197372 -0.478003 
0.477658 0.209206 -0.476738 
0.496195 0.219158 -0.476547 
0.512234 0.227703 -0.477155 
0.529888 0.237186 -0.476958 
0.548328 0.247138 -0.476263 
0.565915 0.256619 -0.475732 
0.5851 0.267033 -0.474354 
0.592846 0.270903 -0.477624 
0.612782 0.281782 -0.475594 
0.631051 0.291721 -0.474082 
0.644421 0.298861 -0.47454 
0.656151 0.305071 -0.475598 
0.672704 0.314071 -0.474359 
0.681975 0.318887 -0.476288 
0.700879 0.329274 -0.473656 
0.70931 0.333628 -0.475751 
0.720135 0.339375 -0.476628 
0.719761 0.338651 -0.482802 
0.726589 0.342099 -0.485488 
0.719894 0.337712 -0.494802 
0.721984 0.338416 -0.499825 
0.719341 0.336373 -0.507246 
0.718316 0.335268 -0.513895 
0.734674 0.344276 -0.511562 
0.741544 0.347775 -0.514036 
0.754693 0.354941 -0.513115 
0.76311 0.359359 -0.5146 
0.776207 0.366518 -0.513462 
0.783032 0.370025 -0.515636 
0.799968 0.379453 -0.512126 
0.807537 0.383414 -0.513699 
0.810449 0.384654 -0.517851 
0.809512 0.38364 -0.524209 
0.805522 0.380832 -0.532383 
0.813113 0.384824 -0.533823 
0.821461 0.389268 -0.534742 
0.833622 0.395964 -0.533288 
0.846512 0.403103 -0.53126 
0.852512 0.406192 -0.533325 
0.868381 0.415111 -0.529209 
0.874349 0.418198 -0.531127 
0.878801 0.420395 -0.533956 
0.897574 0.431069 -0.527572 
0.898237 0.431039 -0.532696 
0.907918 0.436353 -0.531938 
0.922059 0.444323 -0.528126 
0.925711 0.446081 -0.53116 
0.933831 0.450496 -0.531156 
0.943416 0.455791 -0.53007 
0.949276 0.458879 -0.531447 
0.955866 0.462407 -0.532263 
0.956563 0.462429 -0.537161 
0.969013 0.469464 -0.533731 
0.979954 0.475611 -0.531237 
0.981383 0.476082 -0.535509 
0.990096 0.480914 -0.534461 
0.997334 0.484871 -0.534407 
1.00094 0.48666 -0.536987 
1.01752 0.496231 -0.529772 
1.02325 0.499308 -0.530598 
1.03184 0.504106 -0.529177 
1.0354 0.505892 -0.531557 
1.03968 0.508111 -0.533355 
1.04962 0.513752 -0.530633 
1.05954 0.519379 -0.527823 
1.06377 0.521593 -0.529468 
1.7088 0.93942 0 
0.159146 0.191245 1.18789 
0.447612 0.329925 0.957984 
1.7088 0.93942 0 
1.7088 0.93942 0 
1.7088 0.93942 0 
1.7088 0.93942 0 
1.7088 0.93942 0 
1.7088 0.93942 0 
1.7088 0.93942 0 
1.7088 0.93942 0 
1.7088 0.93942 0 
1.7088 0.93942 0 
1.7088 0.93942 0 
1.7088 0.93942 0 
1.7088 0.93942 0 
1.7088 0.93942 0 
1.7088 0.93942 0 
1.7088 0.93942 0 
1.7088 0.93942 0 
1.7088 0.93942 0 
1.7088 0.93942 0 
1.7088 0.93942 0 
1.7088 0.93942 0 
1.7088 0.93942 0 
1.7088 0.93942 0 
1.7088 0.93942 0 
1.7088 0.93942 0 
1.7088 0.93942 0 
1.7088 0.93942 0 
1.7088 0.93942 0 
1.7088 0.93942 0 
1.7088 0.93942 0 
1.7088 0.93942 0 
1.7088 0.93942 0 
1.7088 0.93942 0 
1.7088 0.93942 0 
1.7088 0.93942 0 
1.7088 0.93942 0 
1.7088 0.93942 0 
1.7088 0.93942 0 
1.7088 0.93942 0 
1.7088 0.93942 0 
1.7088 0.93942 0 
1.7088 0.93942 0 
1.7088 0.93942 0 
1.7088 0.93942 0 
1.7088 0.93942 0 
1.7088 0.93942 0 
1.7088 0.93942 0 
1.7088 0.93942 0 
1.7088 0.93942 0 
1.7088 0.93942 0 
1.7088 0.93942 0 
-0.345496 -0.103962 0.903801 
1.7088 0.93942 0 
1.7088 0.93942 0 
1.7088 0.93942 0 
1.7088 0.93942 0 
1.7088 0.93942 0 
1.7088 0.93942 0 
1.7088 0.93942 0 
1.7088 0.93942 0 
1.7088 0.93942 0 
1.7088 0.93942 0 
1.7088 0.93942 0 
1.7088 0.93942 0 
1.7088 0.93942 0 
0.142896 0.133577 0.569886 
0.142709 0.132728 0.561618 
-0.529053 -0.214374 0.790637 
0.105934 0.112241 0.557804 
0.0888103 0.102624 0.555202 
0.0895529 0.102228 0.54641 
0.0511489 0.0815728 0.550649 
1.7088 0.93942 0 
0.0698093 0.0896487 0.527262 
0.0518779 0.0795521 0.524371 
0.174229 0.142306 0.477646 
0.184692 0.147005 0.466456 
0.200351 0.154417 0.453828 
0.207493 0.157409 0.443895 
0.197507 0.151476 0.439028 
0.203005 0.153614 0.429653 
0.185319 0.143647 0.426846 
0.179687 0.139965 0.420555 
0.171492 0.134936 0.414911 
0.173664 0.135329 0.406452 
0.165515 0.130312 0.400708 
0.0209017 0.0536765 0.429629 
1.7088 0.93942 0 
-0.0906727 -0.0066197 0.439676 
0.255184 0.174502 0.347775 
1.7088 0.93942 0 
0.0719483 0.0764904 0.374993 
0.0595722 0.0691642 0.369474 
0.060235 0.0687123 0.360984 
0.19297 0.13808 0.32426 
0.178136 0.129493 0.319709 
1.7088 0.93942 0 
1.7088 0.93942 0 
1.7088 0.93942 0 
1.7088 0.93942 0 
1.7088 0.93942 0 
-0.642203 -0.311451 0.420156 
0.05115 0.0566446 0.287943 
-0.32318 -0.143696 0.3428 
-0.524904 -0.252313 0.365667 
1.7088 0.93942 0 
0.185537 0.125235 0.234156 
0.182341 0.122781 0.227036 
0.177423 0.1194 0.220138 
0.176906 0.118374 0.212585 
0.220176 0.140836 0.199174 
0.182964 0.120126 0.196566 
0.178159 0.116796 0.189578 
0.187396 0.121014 0.180878 
0.18002 0.116297 0.174165 
0.184063 0.117726 0.166139 
0.185507 0.117756 0.158426 
0.184352 0.116384 0.150989 
0.16832 0.106972 0.144942 
0.200542 0.123643 0.134437 
0.21 0.128022 0.12617 
0.21598 0.130525 0.118274 
0.211464 0.127342 0.111219 
0.199081 0.119882 0.104665 
0.197253 0.118146 0.0973104 
0.204226 0.121193 0.0894149 
0.185787 0.110415 0.0829733 
0.0831557 0.053749 0.0805193 
0.0700415 0.0457959 0.0730584 
0.0245018 0.0201317 0.0667522 
-0.695552 -0.37406 0.0833876 
-0.416428 -0.222626 0.0631854 
0.155606 0.0893872 0.0384872 
0.141767 0.0810387 0.0310688 
0.142867 0.0808667 0.0232891 
0.146626 0.082155 0.0154915 
0.154796 0.0858694 0.00770671 
0.146343 0.0804529 1.58992e-15 
0.148437 0.080831 -0.00774148 
0.144428 0.07785 -0.0155263 
0.146581 0.0782613 -0.023263 
0.147888 0.0782073 -0.0309992 
0.145722 0.0762371 -0.0388131 
0.147088 0.0762161 -0.0465481 
0.139737 0.0713737 -0.0545777 
0.139415 0.070416 -0.0624063 
0.14699 0.073834 -0.0698905 
0.147599 0.0733957 -0.0776514 
0.142999 0.0700649 -0.0856977 
0.141924 0.0686885 -0.0935859 
0.146988 0.0707252 -0.101094 
0.142485 0.0674402 -0.109226 
0.145861 0.0685411 -0.116822 
0.141423 0.0652869 -0.125015 
0.136149 0.0615615 -0.133332 
0.149189 0.068062 -0.140065 
0.148327 0.0668015 -0.147994 
0.144888 0.0640978 -0.156198 
0.148434 0.0653033 -0.163713 
0.143325 0.0616584 -0.172154 
0.144326 0.0614377 -0.179954 
0.137552 0.0568506 -0.188687 
0.139484 0.0571505 -0.196411 
0.135383 0.0540572 -0.204911 
0.135646 0.053417 -0.212874 
0.14718 0.0591307 -0.219263 
0.144039 0.0565761 -0.227681 
0.147842 0.0579387 -0.235098 
0.141318 0.053468 -0.244097 
0.117596 0.0392616 -0.255942 
1.7088 0.93942 -0 
0.10909 0.032843 -0.27374 
0.12768 0.0425839 -0.278699 
1.7088 0.93942 -0 
0.145119 0.0509027 -0.291768 
0.168867 0.0636221 -0.295308 
0.173757 0.0656302 -0.302331 
0.176101 0.0661929 -0.309832 
0.173343 0.0638479 -0.318383 
0.174038 0.0634709 -0.326245 
0.177324 0.0645737 -0.333551 
0.174668 0.0622828 -0.342165 
0.177159 0.0629336 -0.349649 
0.175424 0.0611665 -0.358111 
0.176273 0.0608789 -0.365991 
0.179699 0.0620699 -0.373252 
1.7088 0.93942 -0 
1.7088 0.93942 -0 
1.7088 0.93942 -0 
1.7088 0.93942 -0 
1.7088 0.93942 -0 
1.7088 0.93942 -0 
1.7088 0.93942 -0 
1.7088 0.93942 -0 
1.7088 0.93942 -0 
0.232049 0.0846257 -0.439527 
1.7088 0.93942 -0 
1.7088 0.93942 -0 
0.219745 0.0752342 -0.467504 
1.7088 0.93942 -0 
0.248941 0.0906937 -0.47434 
0.254385 0.093118 -0.480578 
0.276442 0.105224 -0.481196 
0.311725 0.125061 -0.477078 
0.32625 0.132823 -0.479796 
0.345719 0.143486 -0.480631 
0.368459 0.156081 -0.480102 
1.7088 0.93942 -0 
1.7088 0.93942 -0 
0.433152 0.191936 -0.478445 
0.45573 0.204526 -0.477067 
0.465174 0.209428 -0.480532 
0.490134 0.223457 -0.477828 
0.50444 0.231245 -0.479102 
0.523609 0.24191 -0.478272 
0.538678 0.250179 -0.478924 
0.556968 0.260362 -0.478088 
0.580079 0.273409 -0.475036 
0.590203 0.278809 -0.477279 
0.608386 0.288983 -0.475943 
0.619282 0.294864 -0.477612 
0.634988 0.303604 -0.47704 
0.650662 0.312341 -0.47632 
0.662299 0.3187 -0.47728 
0.679513 0.328381 -0.475549 
0.68871 0.333316 -0.477389 
0.701878 0.340622 -0.47726 
0.718991 0.350289 -0.475103 
0.715449 0.347669 -0.482802 
0.719068 0.349315 -0.487045 
0.714804 0.34626 -0.495196 
0.714524 0.34558 -0.501414 
0.715057 0.345386 -0.507246 
0.719538 0.347554 -0.511058 
0.72481 0.350199 -0.514427 
0.733991 0.355193 -0.515689 
0.748615 0.363461 -0.513949 
0.759312 0.369387 -0.514179 
0.767661 0.373912 -0.515587 
0.779094 0.380301 -0.515207 
0.792819 0.388081 -0.513424 
0.799573 0.391674 -0.515446 
0.80094 0.392027 -0.520496 
0.800793 0.391468 -0.526432 
0.801438 0.391387 -0.531934 
0.808213 0.395011 -0.533823 
0.818789 0.400942 -0.533373 
0.825542 0.404569 -0.535129 
0.839864 0.41279 -0.532188 
0.849607 0.418248 -0.531921 
0.852544 0.419583 -0.535813 
0.869776 0.429609 -0.530652 
0.872699 0.430949 -0.534435 
0.885355 0.438217 -0.53192 
0.896479 0.444564 -0.530262 
0.897899 0.445006 -0.534882 
0.910467 0.452252 -0.532082 
0.914853 0.454515 -0.534647 
0.928835 0.462646 -0.530654 
0.930991 0.463558 -0.534622 
0.937564 0.467176 -0.535523 
0.943394 0.470346 -0.536883 
0.96527 0.483364 -0.526821 
0.972495 0.48741 -0.526962 
0.970273 0.485659 -0.533859 
0.977493 0.489711 -0.533925 
0.981811 0.491986 -0.536056 
0.987567 0.49515 -0.537084 
1.00479 0.505387 -0.529439 
1.01263 0.50986 -0.528687 
1.01333 0.509927 -0.53333 
1.02045 0.513959 -0.533028 
1.0233 0.515358 -0.535987 
1.03815 0.524195 -0.529453 
1.04097 0.525592 -0.532316 
1.041 0.525257 -0.53742 
1.05084 0.531013 -0.534581 
1.69686 0.960818 0 
1.69686 0.960818 0 
0.0815096 0.154973 1.2346 
0.106657 0.166763 1.2043 
0.569447 0.397318 0.846011 
1.69686 0.960818 0 
0.0100249 0.116105 1.24263 
0.769961 0.496216 0.676499 
0.993473 0.607915 0.508603 
1.69686 0.960818 0 
1.69686 0.960818 0 
1.69686 0.960818 0 
1.69686 0.960818 0 
1.69686 0.960818 0 
1.69686 0.960818 0 
1.69686 0.960818 0 
1.69686 0.960818 0 
1.69686 0.960818 0 
1.69686 0.960818 0 
1.69686 0.960818 0 
1.69686 0.960818 0 
1.69686 0.960818 0 
1.69686 0.960818 0 
1.69686 0.960818 0 
1.69686 0.960818 0 
1.69686 0.960818 0 
1.69686 0.960818 0 
1.69686 0.960818 0 
1.69686 0.960818 0 
1.69686 0.960818 0 
1.69686 0.960818 0 
1.69686 0.960818 0 
1.69686 0.960818 0 
1.69686 0.960818 0 
1.69686 0.960818 0 
1.69686 0.960818 0 
1.69686 0.960818 0 
1.69686 0.960818 0 
1.69686 0.960818 0 
1.69686 0.960818 0 
1.69686 0.960818 0 
1.69686 0.960818 0 
1.69686 0.960818 0 
1.69686 0.960818 0 
1.69686 0.960818 0 
1.69686 0.960818 0 
1.69686 0.960818 0 
1.69686 0.960818 0 
1.69686 0.960818 0 
1.69686 0.960818 0 
1.69686 0.960818 0 
1.69686 0.960818 0 
1.69686 0.960818 0 
1.69686 0.960818 0 
-0.395291 -0.135077 0.926442 
1.69686 0.960818 0 
1.69686 0.960818 0 
1.69686 0.960818 0 
1.69686 0.960818 0 
1.69686 0.960818 0 
1.69686 0.960818 0 
1.69686 0.960818 0 
1.69686 0.960818 0 
1.69686 0.960818 0 
1.69686 0.960818 0 
1.69686 0.960818 0 
1.69686 0.960818 0 
1.69686 0.960818 0 
-0.129415 -0.00823407 0.669023 
0.143554 0.135851 0.560707 
0.0684393 0.0951631 0.579121 
0.0918638 0.106832 0.562236 
0.0908911 0.105531 0.554037 
0.08488 0.101543 0.547559 
0.0814298 0.0989144 0.540179 
1.69686 0.960818 0 
1.69686 0.960818 0 
0.0440831 0.0765644 0.526534 
0.0492154 0.0785042 0.516251 
0.173474 0.144299 0.469339 
0.18903 0.151898 0.456664 
0.213169 0.164122 0.441612 
0.19047 0.151195 0.440524 
0.18996 0.150182 0.432841 
0.184353 0.146424 0.426605 
0.189032 0.148204 0.417476 
0.169783 0.13708 0.414911 
0.141109 0.120849 0.414672 
-0.206523 -0.0677772 0.497524 
0.147217 0.122624 0.397088 
0.159772 0.128659 0.385976 
-0.934461 -0.465039 0.647253 
0.365627 0.238796 0.32064 
0.0660695 0.0755226 0.384453 
0.0821766 0.0834714 0.372411 
0.0621454 0.0717819 0.368696 
0.0472948 0.0628924 0.363646 
0.18518 0.137203 0.325561 
0.185128 0.13643 0.317894 
0.0529368 0.0635309 0.337352 
1.69686 0.960818 0 
1.69686 0.960818 0 
0.302902 0.197902 0.264889 
0.261507 0.174537 0.265506 
-0.228558 -0.0948715 0.346441 
0.058233 0.0615628 0.286579 
-0.154031 -0.0558411 0.314381 
1.69686 0.960818 0 
1.69686 0.960818 0 
0.183081 0.127079 0.234291 
0.183389 0.126498 0.226646 
0.184595 0.126413 0.218881 
0.177143 0.121547 0.212342 
0.18536 0.125335 0.203623 
0.209262 0.137808 0.192957 
0.178417 0.119989 0.189361 
0.178031 0.11902 0.181815 
0.182025 0.120481 0.173766 
0.182569 0.120029 0.166139 
0.182272 0.119111 0.158609 
0.184616 0.11966 0.150815 
0.171316 0.111503 0.144529 
0.169363 0.109654 0.137095 
0.209246 0.131137 0.126097 
0.197773 0.12399 0.119595 
0.202878 0.126095 0.11174 
0.199301 0.123349 0.104544 
0.194882 0.120127 0.0973668 
0.206172 0.125702 0.0892064 
0.105973 0.0687736 0.0872749 
0.0859586 0.0567455 0.0803455 
0.0459381 0.0334594 0.0741144 
0.0416699 0.0302336 0.0660568 
1.69686 0.960818 0 
1.69686 0.960818 0 
0.150987 0.0893716 0.0385741 
0.141608 0.0833051 0.0310514 
0.147934 0.0860974 0.0231978 
0.145582 0.083991 0.0154915 
0.14239 0.0814067 0.00776322 
0.146191 0.0827782 1.58903e-15 
0.1448 0.0812107 -0.00775452 
0.150397 0.0836058 -0.0154567 
0.144717 0.0796034 -0.023276 
0.148632 0.0810475 -0.0309645 
0.142146 0.0765795 -0.0388783 
0.144381 0.0770694 -0.0466002 
0.147513 0.0780721 -0.0542735 
0.146333 0.076618 -0.0620934 
0.145182 0.0751799 -0.0699296 
0.140593 0.0717757 -0.0779556 
0.149044 0.0758227 -0.0853153 
0.14105 0.0704665 -0.0935859 
0.140023 0.0690931 -0.10149 
0.152883 0.075679 -0.108436 
0.144988 0.0703686 -0.116822 
0.144917 0.069543 -0.124668 
0.139688 0.0657524 -0.132962 
0.142273 0.0664513 -0.140612 
0.14143 0.065179 -0.148571 
0.14925 0.0688981 -0.155677 
0.145014 0.0656706 -0.163987 
0.139952 0.0619615 -0.172441 
0.140958 0.061753 -0.180253 
0.136827 0.0585746 -0.188687 
0.135314 0.0569067 -0.196844 
0.143291 0.0607353 -0.203783 
0.1384 0.0571101 -0.212405 
0.139557 0.0569895 -0.220234 
0.142459 0.0578833 -0.227807 
0.142816 0.0573002 -0.235749 
0.145773 0.05823 -0.243291 
0.132497 0.0497078 -0.253447 
1.69686 0.960818 -0 
1.69686 0.960818 -0 
0.123721 0.0421912 -0.279305 
1.69686 0.960818 -0 
0.138503 0.0492334 -0.292889 
0.170608 0.0672342 -0.294815 
0.169517 0.0658151 -0.303005 
0.171857 0.0664074 -0.310524 
0.173376 0.0665193 -0.318206 
0.174923 0.0666491 -0.325882 
0.175651 0.0662988 -0.333737 
0.175564 0.0654687 -0.341785 
0.172973 0.0631634 -0.350426 
0.178018 0.065357 -0.357316 
0.178024 0.064582 -0.365383 
0.174693 0.0618356 -0.374288 
1.69686 0.960818 -0 
1.69686 0.960818 -0 
1.69686 0.960818 -0 
1.69686 0.960818 -0 
1.69686 0.960818 -0 
1.69686 0.960818 -0 
1.69686 0.960818 -0 
1.69686 0.960818 -0 
1.69686 0.960818 -0 
0.230967 0.087535 -0.439527 
1.69686 0.960818 -0 
1.69686 0.960818 -0 
0.222096 0.079969 -0.466456 
1.69686 0.960818 -0 
0.232911 0.0849173 -0.479208 
0.255669 0.0977892 -0.479754 
0.282512 0.113132 -0.478687 
0.307662 0.127488 -0.477927 
0.322913 0.135926 -0.48037 
0.349629 0.151268 -0.478592 
0.373837 0.16513 -0.477443 
1.69686 0.960818 -0 
1.69686 0.960818 -0 
0.423373 0.192942 -0.481216 
0.451497 0.209254 -0.477691 
0.46819 0.218691 -0.478319 
0.487288 0.229598 -0.477828 
0.50635 0.240503 -0.477155 
0.52376 0.250428 -0.476958 
0.540331 0.259861 -0.476928 
0.553652 0.267341 -0.478088 
0.570972 0.277261 -0.477421 
0.588258 0.287178 -0.47659 
0.607109 0.298066 -0.474896 
0.619524 0.305055 -0.475847 
0.632718 0.312531 -0.476325 
0.650666 0.32292 -0.474515 
0.664599 0.330877 -0.474359 
0.67454 0.336409 -0.475919 
0.688425 0.344363 -0.475522 
0.706232 0.354731 -0.47311 
0.712167 0.357848 -0.476247 
0.711024 0.356632 -0.482802 
0.714622 0.358323 -0.487045 
0.708829 0.354253 -0.495982 
0.710906 0.355012 -0.501017 
0.713781 0.356263 -0.505641 
0.712778 0.35513 -0.512274 
0.724236 0.361672 -0.512381 
0.731795 0.365822 -0.514449 
0.748629 0.375703 -0.511446 
0.75461 0.378899 -0.514179 
0.764441 0.384481 -0.514737 
0.77579 0.391012 -0.514349 
0.786347 0.397064 -0.51429 
0.797646 0.403586 -0.513699 
0.80129 0.405373 -0.51741 
0.796571 0.401972 -0.525988 
0.792661 0.399068 -0.534177 
0.803943 0.405607 -0.53337 
0.816708 0.41308 -0.531548 
0.821147 0.41538 -0.534668 
0.84288 0.428466 -0.527084 
0.839786 0.426084 -0.534728 
0.847952 0.43073 -0.535341 
0.868039 0.442835 -0.528274 
0.866471 0.441416 -0.534914 
0.879779 0.449308 -0.53192 
0.887121 0.453476 -0.532696 
0.897404 0.459495 -0.531447 
0.901031 0.461347 -0.534555 
0.912741 0.468281 -0.532156 
0.922215 0.473821 -0.531156 
0.923632 0.474302 -0.535634 
0.933804 0.480296 -0.533995 
0.943944 0.486282 -0.532263 
0.948984 0.489061 -0.534059 
0.959075 0.495034 -0.532169 
0.964813 0.498268 -0.533335 
0.975568 0.504679 -0.530756 
0.984138 0.509719 -0.529675 
0.987688 0.511588 -0.532265 
0.996221 0.51662 -0.531057 
0.996219 0.516245 -0.536286 
1.00543 0.521722 -0.534423 
1.01602 0.528085 -0.531378 
1.02376 0.532646 -0.530449 
1.03638 0.540321 -0.525552 
1.0315 0.536852 -0.53456 
1.03989 0.541847 -0.532903 
1.05657 0.552146 -0.524355 
0.338134 0.29036 1.05473 
0.416303 0.329906 0.984515 
0.715869 0.483471 0.745162 
-0.377499 -0.0802352 1.57171 
1.68465 0.982065 0 
1.68465 0.982065 0 
1.68465 0.982065 0 
1.68465 0.982065 0 
1.68465 0.982065 0 
1.68465 0.982065 0 
1.68465 0.982065 0 
1.68465 0.982065 0 
1.68465 0.982065 0 
1.68465 0.982065 0 
1.68465 0.982065 0 
1.68465 0.982065 0 
1.68465 0.982065 0 
1.68465 0.982065 0 
1.68465 0.982065 0 
1.68465 0.982065 0 
1.68465 0.982065 0 
1.68465 0.982065 0 
1.68465 0.982065 0 
1.68465 0.982065 0 
1.68465 0.982065 0 
1.68465 0.982065 0 
1.68465 0.982065 0 
1.68465 0.982065 0 
1.68465 0.982065 0 
1.68465 0.982065 0 
1.68465 0.982065 0 
1.68465 0.982065 0 
1.68465 0.982065 0 
1.68465 0.982065 0 
1.68465 0.982065 0 
1.68465 0.982065 0 
1.68465 0.982065 0 
1.68465 0.982065 0 
1.68465 0.982065 0 
1.68465 0.982065 0 
1.68465 0.982065 0 
1.68465 0.982065 0 
1.68465 0.982065 0 
1.68465 0.982065 0 
1.68465 0.982065 0 
1.68465 0.982065 0 
1.68465 0.982065 0 
1.68465 0.982065 0 
1.68465 0.982065 0 
1.68465 0.982065 0 
1.68465 0.982065 0 
1.68465 0.982065 0 
1.68465 0.982065 0 
1.68465 0.982065 0 
1.68465 0.982065 0 
-0.40158 -0.145388 0.918334 
1.68465 0.982065 0 
0.322137 0.244388 0.584571 
0.23121 0.194444 0.615516 
0.281153 0.220818 0.586598 
0.448594 0.311028 0.509794 
-0.0213738 0.0550495 0.694238 
0.33093 0.245816 0.543445 
1.68465 0.982065 0 
1.68465 0.982065 0 
1.68465 0.982065 0 
1.68465 0.982065 0 
1.68465 0.982065 0 
0.137824 0.136213 0.570501 
0.142672 0.138102 0.560403 
-0.43062 -0.176721 0.757382 
0.10643 0.116705 0.556623 
0.0895578 0.106665 0.554037 
0.0886347 0.105368 0.545836 
0.128088 0.126269 0.52405 
1.68465 0.982065 0 
-0.655957 -0.307117 0.763157 
0.0464899 0.0789715 0.525452 
0.0954864 0.105194 0.501342 
0.180095 0.151133 0.466718 
0.208246 0.165947 0.450218 
0.184852 0.152271 0.449476 
0.192791 0.155923 0.439277 
0.18721 0.152088 0.433087 
0.185045 0.150142 0.425882 
0.176962 0.144908 0.420318 
0.11874 0.1118 0.4284 
0.144684 0.125452 0.413302 
0.229456 0.171882 0.383003 
0.165264 0.135386 0.392031 
0.12062 0.109728 0.395464 
1.68465 0.982065 0 
1.68465 0.982065 0 
0.131777 0.113627 0.368629 
0.0708586 0.078753 0.374795 
0.0578153 0.0706394 0.369474 
0.0542076 0.0678034 0.361935 
0.186011 0.140962 0.325004 
0.186829 0.140672 0.317168 
1.68465 0.982065 0 
1.68465 0.982065 0 
1.22004 0.720372 0.0912728 
-0.312257 -0.143686 0.382124 
0.109708 0.0934061 0.293369 
-0.381305 -0.184684 0.374337 
0.0445474 0.0549938 0.288852 
-0.442572 -0.221419 0.363857 
-0.164429 -0.0649869 0.306914 
-0.486545 -0.248478 0.34939 
0.187503 0.132792 0.23335 
0.181785 0.128793 0.226646 
0.179542 0.126762 0.219384 
0.17819 0.125236 0.211978 
0.201895 0.137972 0.201164 
0.202334 0.137475 0.193633 
0.180349 0.124191 0.188927 
0.179977 0.12322 0.181398 
0.184817 0.125227 0.173267 
0.181046 0.122314 0.166139 
0.186811 0.124854 0.157971 
0.181369 0.12098 0.150989 
0.163849 0.110177 0.145107 
0.161919 0.108301 0.137642 
0.190285 0.123822 0.127573 
0.200524 0.128952 0.119247 
0.201278 0.128634 0.11174 
0.196006 0.124847 0.104665 
0.200277 0.126555 0.096915 
0.196791 0.123792 0.0896756 
-0.823945 -0.466292 0.138608 
0.0826437 0.0563216 0.0804759 
0.0498389 0.0365354 0.0739188 
0.0309076 0.0247466 0.066474 
1.68465 0.982065 0 
1.68465 0.982065 0 
0.147258 0.0897563 0.0386393 
0.138821 0.0840735 0.0310862 
0.146841 0.0879496 0.0231978 
0.149701 0.0888314 0.0154394 
0.14222 0.0836928 0.00775887 
0.145139 0.0846087 1.58903e-15 
0.150677 0.0870555 -0.00771975 
0.14588 0.083472 -0.0154915 
0.144568 0.0819202 -0.023263 
0.143286 0.0803845 -0.0310514 
0.144623 0.0803802 -0.0387914 
0.140814 0.0773613 -0.0466785 
0.141348 0.0768855 -0.054456 
0.14622 0.0789567 -0.0620586 
0.146811 0.0785169 -0.0698122 
0.137957 0.0725239 -0.0780425 
0.140332 0.0731297 -0.0857455 
0.141014 0.0727403 -0.0935337 
0.144304 0.0738896 -0.101151 
0.142464 0.0720141 -0.109105 
0.143233 0.0716775 -0.116887 
0.143173 0.0708509 -0.124737 
0.131984 0.0634401 -0.133553 
0.135422 0.0646781 -0.141159 
0.139742 0.066443 -0.148654 
0.141518 0.0667021 -0.156372 
0.141609 0.0659626 -0.16426 
0.145153 0.0672747 -0.171772 
0.144447 0.0660624 -0.179754 
0.127534 0.0552022 -0.189729 
0.143128 0.0636905 -0.19576 
0.150197 0.0671109 -0.202768 
0.138525 0.0593537 -0.212288 
0.140534 0.0597567 -0.219991 
0.140018 0.0586508 -0.228058 
0.135278 0.0550176 -0.236789 
0.139079 0.0564933 -0.244232 
0.13526 0.0534054 -0.252892 
1.68465 0.982065 -0 
1.68465 0.982065 -0 
0.146904 0.0579981 -0.275061 
1.68465 0.982065 -0 
0.130263 0.0463883 -0.29433 
0.169749 0.0693727 -0.294815 
0.171208 0.069467 -0.302499 
0.175225 0.0711063 -0.309659 
0.172526 0.0686927 -0.318206 
0.174913 0.0693507 -0.3257 
0.175645 0.0690095 -0.333551 
0.173048 0.0666525 -0.342165 
0.172166 0.065332 -0.350426 
0.174669 0.0660639 -0.357912 
0.178873 0.0678304 -0.364977 
0.173066 0.0635179 -0.374495 
1.68465 0.982065 -0 
1.68465 0.982065 -0 
1.68465 0.982065 -0 
1.68465 0.982065 -0 
1.68465 0.982065 -0 
1.68465 0.982065 -0 
1.68465 0.982065 -0 
1.68465 0.982065 -0 
1.68465 0.982065 -0 
0.221593 0.08537 -0.442021 
1.68465 0.982065 -0 
1.68465 0.982065 -0 
0.215318 0.0792169 -0.46829 
1.68465 0.982065 -0 
0.247404 0.0974256 -0.47407 
0.256058 0.102003 -0.479204 
0.277798 0.114658 -0.479802 
0.304403 0.130337 -0.478493 
0.324439 0.141986 -0.479221 
0.343632 0.153135 -0.480049 
0.365233 0.165794 -0.479806 
1.68465 0.982065 -0 
1.68465 0.982065 -0 
0.424957 0.200754 -0.479677 
0.447218 0.213909 -0.478315 
0.47024 0.227561 -0.476422 
0.486777 0.237204 -0.476867 
0.500075 0.244848 -0.478453 
0.513356 0.252495 -0.479914 
0.531421 0.263138 -0.479256 
0.547852 0.272781 -0.479098 
0.569038 0.28541 -0.47674 
0.582214 0.293055 -0.477624 
0.598548 0.302689 -0.47699 
0.616435 0.313313 -0.475494 
0.625575 0.318474 -0.477754 
0.641817 0.328098 -0.476681 
0.655658 0.336233 -0.47655 
0.677342 0.349308 -0.472596 
0.683258 0.352493 -0.475896 
0.699367 0.362098 -0.474242 
0.704485 0.364798 -0.477772 
0.706486 0.365539 -0.482802 
0.711621 0.368258 -0.486266 
0.709764 0.366568 -0.493229 
0.708717 0.365388 -0.499825 
0.710022 0.365694 -0.50524 
0.711349 0.366015 -0.510653 
0.711926 0.365862 -0.516473 
0.727909 0.375477 -0.514036 
0.743081 0.384594 -0.511863 
0.747493 0.386893 -0.515442 
0.754966 0.391143 -0.517288 
0.770816 0.400729 -0.514349 
0.776733 0.404009 -0.516888 
0.789477 0.411644 -0.515446 
0.793862 0.413962 -0.518733 
0.794477 0.413878 -0.524209 
0.784571 0.407073 -0.535971 
0.803291 0.41856 -0.530656 
0.810703 0.42283 -0.532004 
0.813619 0.424229 -0.536049 
0.821768 0.428985 -0.536828 
0.838828 0.439466 -0.531921 
0.842473 0.441352 -0.535341 
0.852045 0.44705 -0.534931 
0.866022 0.455592 -0.531559 
0.878481 0.463171 -0.529021 
0.882821 0.465533 -0.531723 
0.891559 0.470735 -0.531447 
0.899545 0.475461 -0.531588 
0.902414 0.476891 -0.535146 
0.912557 0.483025 -0.533666 
0.920496 0.487745 -0.533611 
0.925528 0.49059 -0.535523 
0.939199 0.499039 -0.531237 
0.942046 0.500482 -0.534576 
0.954927 0.508441 -0.530607 
0.957762 0.509888 -0.533859 
0.964166 0.513658 -0.534453 
0.974106 0.519736 -0.532334 
0.974812 0.519812 -0.537084 
0.991768 0.530478 -0.529439 
0.99106 0.529641 -0.5352 
1.003 0.537062 -0.531145 
1.00931 0.540811 -0.531378 
1.0156 0.544557 -0.531557 
1.01631 0.544662 -0.536141 
1.0309 0.553854 -0.529512 
1.03368 0.555324 -0.532339 
1.04129 0.559962 -0.531173 
1.67218 1.00316 0 
1.67218 1.00316 0 
1.67218 1.00316 0 
1.67218 1.00316 0 
1.67218 1.00316 0 
1.67218 1.00316 0 
1.67218 1.00316 0 
1.67218 1.00316 0 
1.67218 1.00316 0 
1.67218 1.00316 0 
1.67218 1.00316 0 
1.67218 1.00316 0 
1.67218 1.00316 0 
1.67218 1.00316 0 
1.67218 1.00316 0 
1.67218 1.00316 0 
1.67218 1.00316 0 
1.67218 1.00316 0 
1.67218 1.00316 0 
1.67218 1.00316 0 
1.67218 1.00316 0 
1.67218 1.00316 0 
1.67218 1.00316 0 
1.67218 1.00316 0 
1.67218 1.00316 0 
1.67218 1.00316 0 
1.67218 1.00316 0 
1.67218 1.00316 0 
1.67218 1.00316 0 
1.67218 1.00316 0 
1.67218 1.00316 0 
1.67218 1.00316 0 
1.67218 1.00316 0 
1.67218 1.00316 0 
1.67218 1.00316 0 
1.67218 1.00316 0 
1.67218 1.00316 0 
1.67218 1.00316 0 
1.67218 1.00316 0 
1.67218 1.00316 0 
1.67218 1.00316 0 
1.67218 1.00316 0 
1.67218 1.00316 0 
1.67218 1.00316 0 
1.67218 1.00316 0 
1.67218 1.00316 0 
1.67218 1.00316 0 
1.67218 1.00316 0 
1.67218 1.00316 0 
1.67218 1.00316 0 
1.67218 1.00316 0 
1.67218 1.00316 0 
1.67218 1.00316 0 
1.67218 1.00316 0 
1.67218 1.00316 0 
1.67218 1.00316 0 
1.67218 1.00316 0 
1.67218 1.00316 0 
1.67218 1.00316 0 
1.67218 1.00316 0 
1.67218 1.00316 0 
1.67218 1.00316 0 
1.67218 1.00316 0 
1.67218 1.00316 0 
1.67218 1.00316 0 
1.67218 1.00316 0 
1.67218 1.00316 0 
1.67218 1.00316 0 
-0.390292 -0.158567 0.766005 
0.126816 0.131929 0.565566 
-0.294589 -0.106632 0.709146 
0.485115 0.332737 0.421603 
0.0940399 0.111077 0.551998 
0.0856363 0.10553 0.54641 
0.0830914 0.103293 0.538764 
1.67218 1.00316 0 
1.67218 1.00316 0 
0.0429823 0.0781234 0.526264 
0.0304663 0.0701913 0.521576 
0.168116 0.147659 0.469863 
0.185153 0.156601 0.456664 
0.19553 0.161765 0.445671 
0.184087 0.154495 0.441273 
0.194545 0.159715 0.430389 
0.175559 0.148122 0.428051 
0.179344 0.149531 0.419134 
0.174725 0.146135 0.412585 
0.0341179 0.0648349 0.442758 
1.67218 1.00316 0 
0.155935 0.133082 0.39401 
0.134473 0.119989 0.391582 
1.67218 1.00316 0 
1.67218 1.00316 0 
1.67218 1.00316 0 
0.0919409 0.0923619 0.369631 
0.0586225 0.0723406 0.369085 
0.0431487 0.0625884 0.364216 
0.168912 0.134439 0.328348 
0.190154 0.145963 0.316078 
0.150125 0.122037 0.316788 
1.67218 1.00316 0 
1.67218 1.00316 0 
0.646751 0.407973 0.197639 
-0.377981 -0.187852 0.384647 
-0.365291 -0.181516 0.371844 
0.0447071 0.0560464 0.288701 
0.114937 0.0961242 0.268291 
-0.526992 -0.278896 0.367668 
1.67218 1.00316 0 
0.181541 0.132639 0.234022 
0.180152 0.131067 0.226646 
0.179647 0.13001 0.219132 
0.181741 0.130474 0.21125 
0.177868 0.127443 0.204209 
0.228017 0.156094 0.190025 
0.181346 0.127958 0.188602 
0.196421 0.136053 0.179211 
1.67218 1.00316 0 
0.176922 0.123065 0.166425 
0.180937 0.124664 0.158426 
0.178976 0.122744 0.151075 
0.179618 0.122357 0.143457 
0.160545 0.110327 0.137642 
0.174979 0.118084 0.128754 
0.173131 0.116222 0.121332 
0.185049 0.12251 0.112848 
0.194421 0.127301 0.104665 
0.196953 0.128043 0.097028 
0.110209 0.0757826 0.0948372 
1.67218 1.00316 0 
0.0827881 0.0578664 0.0804324 
0.0510932 0.038181 0.0738406 
0.0331699 0.0266676 0.0663697 
1.67218 1.00316 0 
1.67218 1.00316 0 
0.139252 0.0874982 0.0388131 
0.137754 0.0858113 0.0310862 
0.139717 0.0861939 0.0232891 
0.139136 0.0850541 0.015535 
0.145446 0.0880439 0.00773714 
0.142349 0.085397 1.59081e-15 
0.146142 0.086883 -0.00773714 
0.14482 0.0852985 -0.0154915 
0.150382 0.0878534 -0.0231587 
0.147405 0.0852727 -0.0309471 
0.13932 0.0796115 -0.0389001 
0.136406 0.0770598 -0.0467828 
0.142938 0.080205 -0.0543647 
0.148638 0.0828548 -0.0619196 
0.143247 0.0788046 -0.0699296 
0.144728 0.0789066 -0.0776514 
0.144528 0.0779919 -0.0854587 
0.141796 0.0755418 -0.0934295 
0.143365 0.0756971 -0.101151 
0.134722 0.0696543 -0.109591 
0.143174 0.0739899 -0.116822 
0.127782 0.0638317 -0.125919 
0.144806 0.0733905 -0.132372 
0.132895 0.0653373 -0.141315 
0.146554 0.0728634 -0.147911 
0.134716 0.0648423 -0.156979 
0.142468 0.068775 -0.164078 
0.135803 0.0639013 -0.172727 
0.129177 0.059044 -0.181451 
0.135312 0.0619945 -0.188687 
0.138926 0.0634061 -0.196194 
0.139178 0.0627583 -0.204121 
0.144538 0.0652466 -0.211351 
0.138081 0.0604786 -0.220234 
0.14603 0.0645633 -0.227053 
0.142176 0.0613908 -0.235619 
0.135827 0.0566773 -0.244635 
0.132049 0.0535415 -0.253308 
0.129993 0.051464 -0.261742 
1.67218 1.00316 -0 
0.136074 0.0536027 -0.27688 
1.67218 1.00316 -0 
0.144776 0.0573754 -0.291448 
0.165511 0.0694219 -0.295472 
0.17451 0.0742107 -0.301656 
0.170134 0.0707052 -0.310524 
0.170813 0.0703359 -0.318383 
0.170687 0.069466 -0.326427 
0.171427 0.0691344 -0.334295 
0.17053 0.0677837 -0.342545 
0.170499 0.0669713 -0.350621 
0.173825 0.0682536 -0.357912 
0.173853 0.0674794 -0.365991 
0.172254 0.0656876 -0.374495 
1.67218 1.00316 -0 
1.67218 1.00316 -0 
1.67218 1.00316 -0 
1.67218 1.00316 -0 
1.67218 1.00316 -0 
1.67218 1.00316 -0 
1.67218 1.00316 -0 
1.67218 1.00316 -0 
1.67218 1.00316 -0 
0.222141 0.0891806 -0.441522 
1.67218 1.00316 -0 
1.67218 1.00316 -0 
0.220016 0.085525 -0.466456 
1.67218 1.00316 -0 
0.238025 0.0953777 -0.476774 
0.253943 0.104698 -0.479479 
0.277957 0.119168 -0.479245 
0.302741 0.134151 -0.478493 
0.329098 0.15016 -0.476924 
0.348946 0.16206 -0.477427 
0.371988 0.176011 -0.476556 
1.67218 1.00316 -0 
1.67218 1.00316 -0 
0.430423 0.211194 -0.476598 
0.445295 0.220023 -0.478003 
0.463346 0.230898 -0.478003 
0.486153 0.244833 -0.475906 
0.497756 0.251622 -0.478128 
0.51412 0.261473 -0.478272 
0.538394 0.276411 -0.474932 
0.552307 0.284729 -0.475732 
0.566989 0.293554 -0.476058 
0.580065 0.301363 -0.476934 
0.594697 0.310187 -0.47699 
0.61717 0.324072 -0.473376 
0.624664 0.328333 -0.476325 
0.643913 0.34018 -0.473792 
0.652163 0.34495 -0.476185 
0.669776 0.355775 -0.474073 
0.683449 0.364073 -0.473656 
0.689318 0.367336 -0.476883 
0.700622 0.374124 -0.477391 
0.701063 0.373886 -0.483188 
0.703846 0.375166 -0.487824 
0.702017 0.373456 -0.494802 
0.7033 0.373765 -0.500222 
0.706139 0.375087 -0.504838 
0.705928 0.374426 -0.511058 
0.714154 0.37926 -0.51279 
0.727711 0.387578 -0.511556 
0.739712 0.394894 -0.511029 
0.746369 0.398735 -0.513337 
0.75378 0.403075 -0.515162 
0.765719 0.410384 -0.514349 
0.782155 0.420648 -0.510827 
0.785747 0.422518 -0.514572 
0.787096 0.422921 -0.519614 
0.786967 0.422354 -0.525543 
0.786118 0.421315 -0.531934 
0.794987 0.426661 -0.532465 
0.807556 0.434451 -0.530635 
0.819348 0.441743 -0.529147 
0.82223 0.443176 -0.533116 
0.832502 0.449486 -0.532389 
0.839068 0.453361 -0.533926 
0.845626 0.457237 -0.535407 
0.863158 0.468375 -0.529642 
0.867479 0.470792 -0.532403 
0.876902 0.47659 -0.531723 
0.886299 0.482383 -0.530956 
0.897121 0.489129 -0.529115 
0.904296 0.493467 -0.529665 
0.910017 0.496847 -0.531156 
0.917168 0.501184 -0.531587 
0.924304 0.505518 -0.531957 
0.934283 0.511753 -0.53021 
0.937107 0.51323 -0.533542 
0.953434 0.523717 -0.526962 
0.951987 0.522356 -0.533335 
0.960459 0.527621 -0.532341 
0.974538 0.536643 -0.527016 
0.980837 0.540475 -0.527446 
0.976626 0.537274 -0.535909 
0.995488 0.549535 -0.526516 
0.993394 0.547757 -0.53333 
0.997579 0.550192 -0.535228 
1.00729 0.556347 -0.532664 
1.0149 0.561097 -0.531683 
1.02661 0.568614 -0.527268 
1.03279 0.57242 -0.527258 
1.03554 0.573922 -0.530036 
1.65944 1.02409 0 
0.522709 0.403003 0.894188 
0.00319055 0.11833 1.29105 
0.108284 0.175037 1.19813 
1.65944 1.02409 0 
1.65944 1.02409 0 
1.65944 1.02409 0 
1.65944 1.02409 0 
1.65944 1.02409 0 
1.65944 1.02409 0 
1.65944 1.02409 0 
1.65944 1.02409 0 
1.65944 1.02409 0 
1.65944 1.02409 0 
1.65944 1.02409 0 
1.65944 1.02409 0 
1.65944 1.02409 0 
1.65944 1.02409 0 
1.65944 1.02409 0 
1.65944 1.02409 0 
1.65944 1.02409 0 
1.65944 1.02409 0 
1.65944 1.02409 0 
1.65944 1.02409 0 
1.65944 1.02409 0 
1.65944 1.02409 0 
1.65944 1.02409 0 
1.65944 1.02409 0 
1.65944 1.02409 0 
1.65944 1.02409 0 
1.65944 1.02409 0 
1.65944 1.02409 0 
1.65944 1.02409 0 
1.65944 1.02409 0 
1.65944 1.02409 0 
1.65944 1.02409 0 
1.65944 1.02409 0 
1.65944 1.02409 0 
1.65944 1.02409 0 
1.65944 1.02409 0 
1.65944 1.02409 0 
1.65944 1.02409 0 
1.65944 1.02409 0 
1.65944 1.02409 0 
1.65944 1.02409 0 
1.65944 1.02409 0 
1.65944 1.02409 0 
1.65944 1.02409 0 
1.65944 1.02409 0 
1.65944 1.02409 0 
1.65944 1.02409 0 
1.65944 1.02409 0 
1.65944 1.02409 0 
1.65944 1.02409 0 
-0.05711 0.0407688 0.775991 
-0.0321405 0.0542179 0.755107 
-0.0451344 0.0459063 0.751266 
0.216101 0.195089 0.627991 
0.240062 0.208133 0.609584 
0.476473 0.34344 0.501419 
0.115568 0.135002 0.645762 
0.774291 0.513901 0.3653 
1.65944 1.02409 0 
-0.00918056 0.060625 0.670106 
0.145109 0.148944 0.599769 
0.238323 0.202092 0.555011 
-0.311899 -0.117167 0.75905 
-0.415413 -0.178147 0.787519 
1.65944 1.02409 0 
0.13586 0.13973 0.561618 
1.65944 1.02409 0 
0.737747 0.488157 0.329719 
0.0885027 0.109844 0.553454 
0.0818203 0.105152 0.547271 
0.0834441 0.105295 0.538198 
1.65944 1.02409 0 
1.65944 1.02409 0 
0.05114 0.0840015 0.523289 
0.025422 0.0681349 0.522908 
0.163748 0.148297 0.470649 
0.175668 0.154518 0.458985 
0.181801 0.157358 0.449222 
0.182131 0.156796 0.441273 
0.18918 0.160182 0.43137 
0.173684 0.150317 0.428051 
0.178288 0.152266 0.418897 
0.167847 0.145357 0.413981 
0.044203 0.071687 0.43979 
0.500356 0.340058 0.309496 
-0.405156 -0.195389 0.540444 
0.139679 0.125645 0.389857 
1.65944 1.02409 0 
-0.700907 -0.373713 0.580798 
0.240071 0.182807 0.341849 
0.0798151 0.0870094 0.372213 
0.0602392 0.074574 0.368502 
0.0457347 0.0651318 0.363456 
0.146097 0.123994 0.332994 
0.189994 0.149347 0.315715 
0.138434 0.117869 0.318915 
1.65944 1.02409 0 
1.65944 1.02409 0 
1.65944 1.02409 0 
1.65944 1.02409 0 
1.65944 1.02409 0 
0.0533273 0.0621903 0.287034 
1.65944 1.02409 0 
-0.0218576 0.0154238 0.283185 
-0.357036 -0.186704 0.329286 
0.186655 0.138993 0.232947 
0.186987 0.138431 0.225346 
0.180549 0.133792 0.218755 
0.177537 0.131211 0.211614 
0.176252 0.129668 0.204209 
0.176697 0.129167 0.196566 
0.183128 0.132282 0.188168 
0.226187 0.157549 0.175359 
0.236945 0.163315 0.166779 
0.183024 0.129919 0.165566 
0.179356 0.126928 0.158426 
0.177419 0.124983 0.151075 
0.17551 0.123053 0.143704 
0.171926 0.120102 0.136469 
0.169221 0.117682 0.129123 
0.173361 0.119426 0.121193 
0.196277 0.132613 0.11187 
0.191102 0.128694 0.104787 
0.169762 0.114904 0.0987223 
0.106692 0.0755998 0.0949936 
1.65944 1.02409 0 
0.0931327 0.0656808 0.0798675 
0.05487 0.0414293 0.0736451 
0.0379446 0.0302159 0.0661611 
0.274947 0.174759 0.0494363 
1.65944 1.02409 0 
0.147511 0.0949989 0.0385741 
0.14944 0.0953925 0.0308254 
0.146287 0.0926603 0.0231717 
0.14657 0.0920409 0.015448 
0.144328 0.0898646 0.00773714 
0.148073 0.0913804 1.58368e-15 
0.143337 0.0876616 -0.00774583 
0.142886 0.0865858 -0.0155002 
0.142464 0.0855274 -0.023263 
0.144621 0.0860654 -0.0309819 
0.143407 0.0845159 -0.0387697 
0.140524 0.0819294 -0.0466263 
0.138522 0.0798861 -0.0544864 
0.146736 0.0841887 -0.0619543 
0.136306 0.0769047 -0.0702033 
0.144573 0.0812469 -0.077608 
0.140146 0.0776894 -0.0856499 
0.148463 0.0820726 -0.0929602 
0.142402 0.0774927 -0.101151 
0.138916 0.0745141 -0.109226 
0.135464 0.071552 -0.117343 
0.142193 0.0749555 -0.124668 
0.134575 0.0693829 -0.133184 
0.143046 0.0738838 -0.140299 
0.138873 0.0704632 -0.148571 
0.129672 0.0638819 -0.157414 
0.143279 0.0716193 -0.163896 
0.137517 0.0671923 -0.172441 
0.13853 0.0670218 -0.180253 
0.13873 0.0663401 -0.188167 
0.13055 0.060376 -0.19717 
0.129135 0.0586706 -0.205362 
0.131951 0.0596348 -0.212991 
0.13731 0.0622089 -0.220234 
0.136823 0.0610904 -0.22831 
0.138042 0.0610513 -0.236139 
0.145149 0.0647434 -0.243023 
0.13973 0.0604998 -0.251921 
0.127664 0.0520328 -0.262028 
1.65944 1.02409 -0 
0.132887 0.0537176 -0.277335 
1.65944 1.02409 -0 
0.136549 0.0544186 -0.292889 
0.164625 0.0714962 -0.295472 
0.167747 0.0726875 -0.302837 
0.172553 0.0749574 -0.309832 
0.172404 0.0740663 -0.317852 
0.17063 0.0721351 -0.326245 
0.175511 0.0744609 -0.33318 
0.176279 0.0741572 -0.341025 
0.173773 0.0717554 -0.349649 
0.175428 0.0720201 -0.357316 
0.17464 0.0707168 -0.365586 
0.17553 0.0704915 -0.373459 
0.177272 0.0708143 -0.381123 
1.65944 1.02409 -0 
1.65944 1.02409 -0 
1.65944 1.02409 -0 
1.65944 1.02409 -0 
1.65944 1.02409 -0 
1.65944 1.02409 -0 
1.65944 1.02409 -0 
1.65944 1.02409 -0 
0.222628 0.0930182 -0.441023 
1.65944 1.02409 -0 
1.65944 1.02409 -0 
0.219734 0.0888088 -0.466194 
1.65944 1.02409 -0 
0.237615 0.0988863 -0.476504 
0.249385 0.105782 -0.480578 
0.277242 0.123176 -0.478966 
0.292998 0.132705 -0.481323 
0.320769 0.150095 -0.479221 
0.342077 0.163292 -0.479175 
0.365749 0.178057 -0.478034 
1.65944 1.02409 -0 
1.65944 1.02409 -0 
0.420574 0.211892 -0.479369 
0.44329 0.226123 -0.477691 
0.458028 0.23514 -0.478951 
0.479871 0.248841 -0.477187 
0.497716 0.259937 -0.476831 
0.517105 0.272068 -0.475644 
0.529365 0.279523 -0.477261 
0.551044 0.293201 -0.474721 
0.561686 0.29962 -0.47674 
0.577016 0.309146 -0.47659 
0.589189 0.316602 -0.477688 
0.610708 0.330253 -0.474435 
0.625162 0.339251 -0.474183 
0.634147 0.344639 -0.47632 
0.647777 0.353118 -0.476185 
0.662155 0.362108 -0.475549 
0.674184 0.369552 -0.475896 
0.693902 0.382122 -0.472355 
0.698943 0.384947 -0.475865 
0.697077 0.383177 -0.482802 
0.702142 0.386025 -0.486266 
0.698798 0.383268 -0.494016 
0.697784 0.382063 -0.50062 
0.6968 0.380877 -0.507246 
0.697367 0.380726 -0.513084 
0.707057 0.386682 -0.514018 
0.719 0.394157 -0.513623 
0.731672 0.402134 -0.512697 
0.742053 0.408587 -0.512915 
0.749407 0.413019 -0.514737 
0.759752 0.41947 -0.514778 
0.770823 0.426419 -0.51429 
0.781868 0.433363 -0.513699 
0.780231 0.431775 -0.520496 
0.780112 0.431209 -0.526432 
0.776316 0.42816 -0.534625 
0.782911 0.432125 -0.536537 
0.794661 0.439582 -0.535198 
0.812997 0.451506 -0.529607 
0.818797 0.454963 -0.531724 
0.822398 0.456937 -0.535196 
0.844981 0.471787 -0.526379 
0.844181 0.470791 -0.532554 
0.85793 0.479677 -0.529162 
0.855702 0.477717 -0.536268 
0.87301 0.489046 -0.530262 
0.875126 0.490049 -0.534391 
0.889467 0.499385 -0.530104 
0.896591 0.503815 -0.530661 
0.90013 0.505805 -0.533666 
0.912222 0.513642 -0.530576 
0.918589 0.517579 -0.531447 
0.925653 0.521999 -0.53175 
0.933408 0.5269 -0.531474 
0.939031 0.530347 -0.53269 
0.948859 0.536686 -0.530713 
0.954453 0.540129 -0.531813 
0.956549 0.541174 -0.535524 
0.961441 0.544144 -0.537084 
0.974654 0.552846 -0.532135 
0.980895 0.556761 -0.532486 
0.995397 0.566376 -0.526227 
0.988524 0.561262 -0.536878 
0.99885 0.568014 -0.533772 
1.0064 0.572862 -0.532797 
1.02074 0.582411 -0.526146 
1.02144 0.582535 -0.530645 
1.02622 0.585484 -0.531741 
1.64644 1.04486 0 
1.64644 1.04486 0 
1.64644 1.04486 0 
1.64644 1.04486 0 
1.64644 1.04486 0 
1.64644 1.04486 0 
1.64644 1.04486 0 
1.64644 1.04486 0 
1.64644 1.04486 0 
1.64644 1.04486 0 
1.64644 1.04486 0 
1.64644 1.04486 0 
1.64644 1.04486 0 
1.64644 1.04486 0 
1.64644 1.04486 0 
1.64644 1.04486 0 
1.64644 1.04486 0 
1.64644 1.04486 0 
1.64644 1.04486 0 
1.64644 1.04486 0 
1.64644 1.04486 0 
1.64644 1.04486 0 
1.64644 1.04486 0 
1.64644 1.04486 0 
1.64644 1.04486 0 
1.64644 1.04486 0 
1.64644 1.04486 0 
1.64644 1.04486 0 
1.64644 1.04486 0 
1.64644 1.04486 0 
1.64644 1.04486 0 
1.64644 1.04486 0 
1.64644 1.04486 0 
1.64644 1.04486 0 
1.64644 1.04486 0 
1.64644 1.04486 0 
1.64644 1.04486 0 
1.64644 1.04486 0 
1.64644 1.04486 0 
1.64644 1.04486 0 
1.64644 1.04486 0 
1.64644 1.04486 0 
1.64644 1.04486 0 
1.64644 1.04486 0 
1.64644 1.04486 0 
1.64644 1.04486 0 
1.64644 1.04486 0 
1.64644 1.04486 0 
1.64644 1.04486 0 
1.64644 1.04486 0 
1.64644 1.04486 0 
1.64644 1.04486 0 
1.64644 1.04486 0 
1.64644 1.04486 0 
1.64644 1.04486 0 
1.64644 1.04486 0 
1.64644 1.04486 0 
-0.786674 -0.393591 1.06642 
0.743124 0.51036 0.390804 
1.64644 1.04486 0 
1.64644 1.04486 0 
1.64644 1.04486 0 
1.64644 1.04486 0 
1.64644 1.04486 0 
1.64644 1.04486 0 
1.64644 1.04486 0 
1.64644 1.04486 0 
1.64644 1.04486 0 
0.22491 0.196411 0.535711 
0.0915613 0.116019 0.577412 
0.072579 0.103867 0.575826 
1.12423 0.732371 0.1882 
0.0912189 0.113405 0.551998 
0.0846004 0.108634 0.545836 
0.0771796 0.103374 0.539896 
1.64644 1.04486 0 
1.64644 1.04486 0 
0.0368805 0.0766977 0.527616 
0.0270412 0.0699404 0.522109 
0.125502 0.128428 0.482179 
0.160474 0.14873 0.463111 
0.172356 0.155131 0.451505 
0.179317 0.158571 0.441522 
0.178026 0.157029 0.434068 
0.16846 0.150478 0.429015 
0.173868 0.152985 0.419607 
0.162681 0.145438 0.414911 
0.0840847 0.0969817 0.428601 
-0.64269 -0.345144 0.615853 
0.259248 0.201809 0.365866 
-0.220645 -0.0908137 0.482578 
-0.311317 -0.146987 0.495692 
1.64644 1.04486 0 
1.64644 1.04486 0 
-0.028365 0.0226492 0.397636 
0.0576231 0.0743023 0.36889 
0.0474255 0.0672377 0.362885 
0.0481433 0.0668414 0.354364 
0.194812 0.155831 0.314263 
0.150367 0.127829 0.316079 
1.64644 1.04486 0 
1.64644 1.04486 0 
1.64644 1.04486 0 
1.64644 1.04486 0 
1.64644 1.04486 0 
0.042443 0.0566337 0.288852 
-0.444015 -0.244172 0.365624 
1.64644 1.04486 0 
-0.690004 -0.39831 0.384468 
0.170564 0.13247 0.235231 
0.181017 0.138161 0.225996 
0.179697 0.136573 0.218629 
0.178405 0.135 0.21125 
0.177141 0.133443 0.203858 
0.170839 0.128757 0.197129 
0.211004 0.152936 0.184372 
0.230101 0.164056 0.17463 
1.64644 1.04486 0 
0.210104 0.150104 0.16232 
0.181127 0.13128 0.158062 
0.179216 0.129313 0.150728 
0.180713 0.129472 0.143044 
0.173784 0.124366 0.136157 
0.125455 0.0933535 0.132815 
0.171001 0.121065 0.121263 
0.204742 0.141428 0.111089 
0.179322 0.124722 0.105517 
0.125179 0.0899575 0.101603 
0.0998138 0.0732158 0.0953585 
1.64644 1.04486 0 
0.0364931 0.0317268 0.0827355 
0.0636457 0.0479734 0.0732148 
0.0443254 0.0349538 0.065883 
1.64644 1.04486 0 
-0.131989 -0.078079 0.0548668 
0.141235 0.0936404 0.0387045 
0.144849 0.095125 0.0308949 
0.137507 0.0896778 0.0232891 
0.143712 0.0928051 0.0154654 
0.13812 0.0884582 0.00776322 
0.143536 0.0910906 1.58725e-15 
0.143069 0.089992 -0.00774148 
0.140099 0.0873016 -0.0155176 
0.144753 0.0894578 -0.0232108 
0.139312 0.0851908 -0.0310688 
0.143177 0.0868486 -0.038748 
0.142855 0.0858391 -0.046522 
0.143404 0.0853852 -0.0542735 
0.141456 0.0833356 -0.0621282 
0.138696 0.0807647 -0.0700469 
0.145224 0.0841343 -0.0775211 
0.144205 0.0826768 -0.0853631 
0.139853 0.0790813 -0.0934295 
0.140577 0.0787368 -0.101207 
0.140489 0.0778718 -0.109044 
0.137072 0.0748671 -0.117148 
0.144596 0.078895 -0.12439 
0.133692 0.0710685 -0.133184 
0.139592 0.0740557 -0.140534 
0.137139 0.0716627 -0.148654 
0.13974 0.0725287 -0.156285 
0.141532 0.0728738 -0.163987 
0.13081 0.0651323 -0.173109 
0.146031 0.0741621 -0.179255 
0.137885 0.0680781 -0.188167 
0.1473 0.0733648 -0.194892 
0.13589 0.0651547 -0.204347 
0.142853 0.0688583 -0.211351 
0.145674 0.0698778 -0.218898 
0.130222 0.0590194 -0.22919 
0.131446 0.0589956 -0.237049 
0.13519 0.0606135 -0.2445 
0.142277 0.064414 -0.251367 
0.131145 0.0563368 -0.261313 
1.64644 1.04486 -0 
0.143786 0.062953 -0.275213 
1.64644 1.04486 -0 
1.64644 1.04486 -0 
0.169489 0.0773428 -0.294321 
0.168468 0.0758705 -0.302499 
0.16995 0.0760391 -0.310178 
0.168992 0.0746062 -0.318383 
0.172175 0.0758939 -0.3257 
0.170457 0.0739606 -0.334109 
0.170413 0.0731274 -0.342165 
0.174496 0.0750128 -0.34926 
0.171237 0.0720607 -0.358111 
0.174555 0.0734451 -0.365383 
0.169733 0.0694564 -0.374702 
0.160061 0.0622563 -0.38535 
1.64644 1.04486 -0 
1.64644 1.04486 -0 
1.64644 1.04486 -0 
1.64644 1.04486 -0 
1.64644 1.04486 -0 
1.64644 1.04486 -0 
1.64644 1.04486 -0 
1.64644 1.04486 -0 
0.221441 0.0958084 -0.441023 
1.64644 1.04486 -0 
1.64644 1.04486 -0 
0.217798 0.0910271 -0.466456 
1.64644 1.04486 -0 
0.229951 0.0975829 -0.478667 
0.24404 0.106233 -0.481951 
0.266896 0.120771 -0.482033 
0.293698 0.137978 -0.480474 
0.313289 0.150378 -0.481231 
0.335233 0.164378 -0.480923 
0.356346 0.177843 -0.480693 
1.64644 1.04486 -0 
1.64644 1.04486 -0 
0.412355 0.213439 -0.481524 
0.434899 0.227957 -0.479875 
0.45897 0.24353 -0.47737 
0.475921 0.254322 -0.477508 
0.488924 0.262462 -0.479102 
0.506604 0.273781 -0.4786 
0.525811 0.286153 -0.477261 
0.537182 0.293236 -0.479098 
0.553208 0.303488 -0.478784 
0.570755 0.314791 -0.477624 
0.586715 0.325034 -0.47699 
0.600319 0.333693 -0.477259 
0.608493 0.338673 -0.479896 
0.627453 0.351006 -0.477404 
0.64252 0.360706 -0.47655 
0.65832 0.370923 -0.47518 
0.664123 0.374334 -0.478508 
0.680634 0.385065 -0.476505 
0.694814 0.394222 -0.475484 
0.687638 0.38878 -0.485114 
0.697996 0.395338 -0.485877 
0.695444 0.393059 -0.493229 
0.696712 0.393397 -0.498633 
0.693469 0.39064 -0.506444 
0.697049 0.392566 -0.510653 
0.699135 0.393468 -0.515655 
0.70874 0.399548 -0.516515 
0.721322 0.407688 -0.515618 
