# .PCD v0.7 - Point Cloud Data file format
VERSION 0.7
FIELDS x y z
SIZE 4 4 4
TYPE F F F
COUNT 1 1 1
WIDTH 1412
HEIGHT 1
VIEWPOINT 0 0 0 1 0 0 0
POINTS 1412
DATA ascii
0.027918287 -0.62638223 0.77901596
0.89475214 -0.21989045 0.3886731
0.92666554 -0.068111815 0.36966449
0.57612169 -0.57883984 0.57708609
0.22622541 -0.74369913 0.62907356
0.38102761 -0.5102753 0.77099752
-0.033966906 -0.76299483 0.64551151
0.85377866 -0.44446471 0.27113312
-0.60290164 0.12528758 0.78791666
0.91764975 -0.077853143 0.38968936
0.88140959 -0.30948469 0.35684225
0.65960926 -0.50921226 0.55282772
0.77641976 -0.18073751 0.60374361
0.06469889 -0.70429069 0.70695728
-0.16031879 -0.75993383 0.62991941
0.75051105 -0.51415324 0.41518611
-0.6130501 0.059395611 0.78780824
0.91764975 -0.077853143 0.38968936
0.92508507 -0.10580223 0.36472368
0.85678273 -0.30122337 0.41855446
0.55777663 -0.37643036 0.73971987
0.046125863 -0.69878155 0.71384645
0.077690683 -0.80807137 0.58393902
0.61327398 -0.64131248 0.46110016
-0.073922306 -0.52763057 0.84625143
0.89727467 0.061686829 0.43714184
0.83854628 -0.42500401 0.34089845
0.9229992 -0.060847156 0.3799606
0.88958007 -0.045121733 0.45454511
0.06469889 -0.70429069 0.70695728
0.31353289 -0.74127084 0.59347677
0.40988111 -0.72371101 0.55519354
0.36763874 -0.74639761 0.55473644
0.867818 -0.27440113 0.41424131
0.91472816 -0.17667684 0.36339751
0.43857783 -0.65242773 0.61805147
0.63938046 -0.31331807 0.7021569
0.29365739 -0.55778009 0.77630329
-0.066695452 -0.81362867 0.57754648
0.40988111 -0.72371101 0.55519354
0.51914626 -0.72154599 0.45810324
0.4846237 -0.50558984 0.71380585
0.91664982 -0.052199744 0.39626792
0.91080451 -0.2128258 0.35375172
0.54128563 -0.63209659 0.55449408
0.90790522 -0.025520934 0.41839781
0.78603554 -0.16972774 0.59442455
0.050291993 -0.82053447 0.56938034
-0.3872802 -0.44046471 0.80994135
0.60401112 -0.56575108 0.56133443
0.87546021 -0.25805479 0.4086284
0.91486871 -0.18968096 0.35642156
0.31152004 -0.68548959 0.65807241
0.26722965 -0.63120854 0.72812378
0.39548275 -0.4219878 0.81579381
-0.037156943 -0.8116672 0.58293706
0.42530966 -0.70361 0.56924921
-0.42219532 -0.15242383 0.89359838
0.91664982 -0.052199744 0.39626792
0.88803613 -0.2944977 0.35307646
0.72675866 -0.4902676 0.48110241
0.25646916 -0.66755283 0.69899702
0.97948617 -0.065340877 0.19062378
-0.15797555 -0.78643906 0.5971244
0.10354208 -0.6847232 0.72141051
-0.21994615 -0.51966548 0.82557344
0.89941865 0.071438707 0.43121064
0.89497101 -0.26286578 0.3604559
0.38529795 -0.65629071 0.64871264
0.25646916 -0.66755283 0.69899702
0.80850869 -0.14804174 0.56955904
-0.12347715 -0.80477041 0.58060133
-0.48352075 -0.11616862 0.86759007
0.60401112 -0.56575108 0.56133443
0.91281933 0.035643086 0.40680522
0.91486871 -0.18968096 0.35642156
0.91007948 -0.12926257 0.39375952
0.28591484 -0.66787869 0.68716139
0.43282756 -0.5394842 0.72223061
-0.037156943 -0.8116672 0.58293706
0.16322203 -0.74784875 0.64349103
0.017651303 -0.67296499 0.73946363
0.90954727 -0.10363236 0.40247265
0.92639208 0.088082001 0.36611384
0.54128563 -0.63209659 0.55449408
0.26542634 -0.6575411 0.70511591
0.90638262 -0.17670919 0.3837243
0.26286891 -0.74552894 0.61244309
-0.3872802 -0.44046471 0.80994135
-0.39072886 -0.21352258 0.8953988
0.84701848 -0.077853881 0.52583116
0.82787365 -0.36154148 0.4288508
0.89645731 -0.25743529 0.36068183
0.70211571 -0.54091591 0.46308056
0.80282575 -0.24253872 0.54465199
0.54800236 -0.20293865 0.81148589
0.37678868 -0.65525293 0.65473181
-0.038555857 -0.63720208 0.76973176
-0.28194326 -0.48033795 0.83053201
0.84214514 0.053420525 0.53659827
0.86921364 -0.25074801 0.4261373
0.93100762 -0.017866971 0.3645623
0.57245344 -0.61841637 0.53838491
0.776941 -0.24832165 0.57853186
0.39688075 -0.48349714 0.78020257
0.37678868 -0.65525293 0.65473181
-0.45398441 -0.16128147 0.87629128
-0.1606319 -0.64674044 0.74560326
0.85757166 -0.034184173 0.5132274
0.81102479 -0.40986544 0.41743153
0.92388976 -0.1169988 0.36433372
0.77238643 -0.45297116 0.4452374
0.53246272 -0.49243 0.68847376
0.79269147 -0.072987109 0.60523808
0.62881166 -0.47704262 0.61402464
-0.038555857 -0.63720208 0.76973176
-0.0022530316 -0.6887126 0.72503096
0.85624504 -0.073681742 0.51128799
0.90940136 -0.071877807 0.40966162
0.90940523 -0.21571991 0.35559389
0.83809298 -0.34917021 0.4191424
0.70771807 -0.3450965 0.61647671
0.34423086 -0.69175416 0.63480812
0.62881166 -0.47704262 0.61402464
-0.22185181 -0.56745279 0.79295588
-0.43171626 -0.10820045 0.89549631
0.85624504 -0.073681742 0.51128799
0.8695851 -0.22874269 0.43760541
0.57949656 -0.70510137 0.40867573
0.92731583 0.090179548 0.36325341
0.94319081 -0.020440791 0.33162209
0.37254256 -0.54651219 0.75002432
-0.1330425 -0.83213919 0.53837156
-0.56804317 0.075059004 0.81956887
-0.0022530316 -0.6887126 0.72503096
0.85624504 -0.073681742 0.51128799
0.8695851 -0.22874269 0.43760541
0.89154029 -0.25945455 0.3712672
0.85123801 -0.32647777 0.41086024
0.30451629 -0.63633931 0.70876098
0.29312703 -0.6831702 0.66884613
0.62881166 -0.47704262 0.61402464
-0.46242836 -0.11874283 0.8786695
-0.57385105 0.037554998 0.81809813
0.82801342 0.0013089025 0.56070668
0.86754042 -0.14739221 0.47502536
0.8851729 -0.26273194 0.38398033
0.87070912 -0.32066607 0.37287915
0.22952262 -0.61469954 0.75462824
0.77854848 -0.12838098 0.61431313
0.43218362 -0.10504828 0.89564627
-0.31539732 -0.44888604 0.83607769
-0.36204696 -0.24591854 0.8991363
0.82416129 -0.0079531549 0.56629932
0.82822007 0.11304578 0.54888266
0.8118549 -0.4605343 0.3588869
0.85467488 -0.35233179 0.38130456
0.25856107 -0.62888181 0.73324889
0.30816069 -0.64564401 0.69869941
0.39612198 -0.40969712 0.82172728
0.014724122 -0.76521587 0.64360535
-0.22667767 -0.63657218 0.73715204
0.72821581 0.096904539 0.67846239
0.82801342 0.0013089025 0.56070668
0.86754042 -0.14739221 0.47502536
0.85904962 -0.36611176 0.35776526
0.90092868 -0.19055152 0.38989437
0.25856107 -0.62888181 0.73324889
0.85950404 -0.14613841 0.48979202
-0.15926215 -0.83033079 0.53402835
0.014724122 -0.76521587 0.64360535
0.52815586 -0.19871683 0.82556832
0.8298412 0.011510674 0.55788082
0.86067694 0.093943812 0.50040966
0.89210546 -0.23462114 0.38613567
0.92367959 0.0021260749 0.38315979
0.52744502 -0.51998466 0.67187619
0.60002798 -0.24029042 0.76303786
0.56129712 -0.0567437 0.82566684
0.014724122 -0.76521587 0.64360535
-0.28674582 -0.4746657 0.83214742
0.61947924 -0.069403157 0.78193909
0.83568197 0.0081724515 0.54915285
0.89492834 -0.087086827 0.43762887
0.92372894 -0.025088035 0.38222435
0.64903158 -0.59633702 0.47237712
0.29074124 -0.64176542 0.7096526
0.42020467 -0.41003108 0.80950767
0.8061651 -0.17448485 0.56537861
-0.21307747 -0.6521855 0.7274971
-0.17488761 -0.64361352 0.74510127
0.47057691 -0.35003838 0.80995715
0.82801342 0.0013089025 0.56070668
0.88511533 0.033045135 0.46419695
0.92161536 -0.0073953969 0.38803405
0.90092868 -0.19055152 0.38989437
0.35801315 -0.62602568 0.69276142
0.45174018 -0.36254972 0.81516171
0.76389551 -0.18169606 0.61923367
-0.33896741 -0.24092446 0.90942645
-0.4453173 -0.15046622 0.88263947
0.69369227 0.12383135 0.70954686
0.77343518 0.054979268 0.63148659
0.78053612 -0.2363686 0.57869965
0.88947695 -0.2221314 0.39936
0.79594874 -0.45388752 0.40056413
0.89428675 -0.18257731 0.40855452
0.41918379 -0.4847393 0.76766706
0.29161006 -0.66563654 0.68694371
-0.22953452 -0.70465773 0.67139512
0.54494846 -0.16453409 0.82216769
0.69369227 0.12383135 0.70954686
0.80574036 0.11309551 0.58137071
0.68329459 -0.49154651 0.53989851
0.79280877 -0.53263372 0.29623574
0.82848424 -0.38975084 0.40212953
0.62742615 -0.47711521 0.61538392
0.82868797 -0.063749626 0.55606854
0.55846226 -0.015702158 0.82938129
-0.22953452 -0.70465773 0.67139512
0.78468007 0.012515884 0.61977458
0.88630813 0.0052117645 0.46306679
0.89693338 0.07010565 0.43657273
0.91120386 -0.15183458 0.38295403
0.62742615 -0.47711521 0.61538392
0.96208256 -0.095550142 0.25547484
0.55271327 -0.073363163 0.83013606
-0.27704242 -0.5202803 0.80780929
-0.24658084 -0.58014435 0.7762928
0.64303917 0.16461501 0.7479322
0.78468007 0.012515884 0.61977458
0.85982233 -0.067115843 0.506163
0.6073072 -0.70617819 0.36399221
0.76629132 -0.48672515 0.4193998
0.38939878 -0.63138068 0.67061687
0.3978546 -0.50300872 0.76726395
0.50508028 -0.20909652 0.83736044
0.014674452 -0.80187207 0.59731543
0.52999145 -0.15005551 0.83462113
0.76464593 0.065330364 0.64113069
0.83162522 0.176277 0.52661753
0.91282564 -0.15637417 0.37722194
0.92433643 0.074735768 0.3741881
0.81503332 -0.28206974 0.50611991
0.62588495 -0.29639989 0.721398
0.42632979 -0.34649184 0.83557546
-0.31647035 -0.29313153 0.90217537
0.75474888 -0.12569764 0.64385891
0.77461505 0.058588754 0.6297133
0.84953046 -0.10251226 0.51748353
0.91952854 -0.094981141 0.38137361
0.76629132 -0.48672515 0.4193998
0.86811996 -0.34049979 0.36114767
0.67018569 -0.23225826 0.70491654
0.39797825 -0.38125902 0.83441883
-0.17391723 -0.76708889 0.61751711
0.15516478 -0.82552999 0.5426088
0.61540228 0.080552213 0.78408629
0.73860621 0.074016191 0.67006153
0.84245241 0.015183614 0.53855681
0.87025303 0.2273059 0.43702593
0.90511453 -0.24956533 0.34421602
0.87949508 -0.22119536 0.42137989
0.68118763 -0.30322 0.66636407
0.26868677 -0.66830152 0.69367188
-0.33859867 -0.40664747 0.84852153
0.61241525 0.034837473 0.78976828
0.75285083 0.092819571 0.65161353
0.86951554 0.011909364 0.49376205
0.89384562 0.081120878 0.44097549
0.77650881 -0.4734908 0.41574103
0.8521058 -0.28150418 0.44121546
0.9166137 -0.089570433 0.38961065
0.31424791 -0.60717964 0.72978169
-0.27519417 -0.70074642 0.65819651
0.62828285 0.13775028 0.76569283
0.75401235 0.023733418 0.65643132
0.84892941 -0.02056331 0.52810615
0.90422434 -0.17961489 0.3874492
0.87827212 0.23590817 0.41591528
0.48477343 -0.58784401 0.64763737
0.68118763 -0.30322 0.66636407
0.46209198 -0.33921251 0.81939358
-0.31997514 -0.41377163 0.85229629
0.60015619 0.13286559 0.78877068
0.7306332 0.06503778 0.67966557
0.82376629 0.033640195 0.56593066
0.87594831 -0.24471419 0.41572762
0.92398494 -0.074906267 0.3750211
0.93974411 0.071874991 0.3342379
0.29779473 -0.64533031 0.70346797
0.31424791 -0.60717964 0.72978169
-0.25943831 -0.66783458 0.69763094
0.59813714 0.084623449 0.79691333
0.72708786 -0.0022099426 0.68654084
0.86951554 0.011909364 0.49376205
0.91729838 -0.080814555 0.38991377
0.91891128 0.13791928 0.36956778
0.91151154 -0.066274248 0.40589952
0.51539683 -0.46048182 0.72271883
0.46209198 -0.33921251 0.81939358
-0.18089731 -0.78458577 0.59304416
0.58732611 0.22948085 0.77613568
0.73000914 0.0043493281 0.68342352
0.83004612 0.084536165 0.55125046
0.91701245 -0.021657359 0.39827022
0.91899854 -0.16683228 0.35722369
0.93360573 0.031325191 0.35693011
0.8826586 -0.072007984 0.46446589
0.39050236 -0.47191316 0.79044664
-0.27519417 -0.70074642 0.65819651
0.57310694 0.044441912 0.81827462
0.69468969 0.13611193 0.70631421
0.82332188 0.02809325 0.56687909
0.90972817 -0.089333341 0.40548027
0.92543983 -0.074582614 0.37148166
0.92638779 0.0071096374 0.37650374
0.50418884 -0.49350768 0.70869166
0.73100573 -0.072999828 0.67845529
-0.16792364 -0.83339667 0.52654696
0.48843393 0.16959777 0.85596079
0.69570863 0.13481449 0.70555967
0.83085728 0.23282599 0.50543869
0.90164328 0.12869361 0.412889
0.92926311 -0.048559308 0.36621314
0.86763352 -0.26358256 0.42158765
0.57293922 -0.44426781 0.688743
0.75431794 -0.029933458 0.65582651
-0.28620973 -0.80188638 0.52446359
0.58061403 0.075629421 0.81065869
0.686979 0.28015226 0.6705032
0.84008014 0.0055799903 0.54243362
0.90830559 -0.13691594 0.39526564
0.88673401 0.11212277 0.44847673
0.91135687 -0.10141578 0.39892799
0.57293922 -0.44426781 0.688743
0.23060891 -0.60320693 0.76351875
0.56127149 0.042149544 0.82655776
0.47341597 0.14595903 0.86866176
0.6795789 0.090750389 0.72796768
0.78706479 -0.083826885 0.61114818
0.85981786 0.27521577 0.43008089
0.92926311 -0.048559308 0.36621314
0.86763352 -0.26358256 0.42158765
0.57293922 -0.44426781 0.688743
0.4429957 -0.46234244 0.76811081
0.58253384 -0.19878457 0.78812379
0.48507437 0.27484459 0.83015853
0.69173449 0.083620422 0.71729422
0.81409913 -0.054868065 0.5781281
0.8687346 0.23246244 0.43733451
0.93526155 0.0018271082 0.35395268
0.89943039 -0.16829363 0.40336359
0.74854612 -0.26157495 0.60930884
0.25635642 -0.67176896 0.69498765
0.39172992 -0.68799019 0.61091506
0.52694064 0.19401397 0.82746118
0.6795789 0.090750389 0.72796768
0.76234418 -0.15952837 0.62720168
0.89855272 -0.18356666 0.39863062
0.9298901 0.046610631 0.36487243
0.89943039 -0.16829363 0.40336359
0.57293922 -0.44426781 0.688743
0.48121944 -0.36468369 0.79714084
0.9082846 -0.059374601 0.41411811
0.42243099 0.29435501 0.85726726
0.67647421 0.34172934 0.65238315
0.8221308 0.020199221 0.56894022
0.88825577 0.038027078 0.45777243
0.79795915 0.25989482 0.54379767
0.78541851 -0.40272856 0.47002932
0.78106874 -0.26086548 0.56734538
0.66828656 -0.20373198 0.71546233
0.38688141 -0.49465829 0.77822614
0.94869739 0.17093876 0.2659947
0.67647421 0.34172934 0.65238315
0.72156906 0.68119848 0.1237203
0.88843298 0.079995967 0.45198178
0.91496384 -0.19270489 0.35455033
0.93052936 0.030710209 0.36492741
0.83167249 -0.18488167 0.52358347
0.78464717 -0.10905034 0.61027604
0.39162496 0.084158324 0.91626811
0.66121703 0.073507458 0.74658465
0.84472567 0.12986952 0.5192036
0.8914265 0.15276773 0.4266389
0.93281257 0.043172162 0.35776648
0.93269438 -0.016120994 0.36030719
0.80950123 -0.22262809 0.54327196
0.5676465 -0.40429017 0.71716589
0.45421234 0.27137411 0.84855598
0.63513887 0.15241216 0.75721151
0.84813255 0.23118363 0.47668147
0.89589214 -0.19096904 0.4011336
0.79795915 0.25989482 0.54379767
0.83603811 -0.35413164 0.41908365
0.56160551 -0.49921966 0.65983254
0.59622711 -0.35512057 0.72000188
0.63722771 -0.042254053 0.76951635
0.95244521 0.30008286 0.052898869
0.65445042 0.16471633 0.7379452
0.84813255 0.23118363 0.47668147
0.89697528 -0.16376242 0.41063032
0.92392004 -0.12464566 0.36171147
0.9288016 0.064816892 0.36486465
0.73611057 -0.32267278 0.59499884
0.48330876 -0.49395004 0.72279048
0.61152011 -0.06213893 0.7887851
0.44634607 0.21590856 0.86842316
0.67647421 0.34172934 0.65238315
0.83081371 0.037786454 0.5552665
0.87857807 -0.24884087 0.40765023
0.89407003 0.17635775 0.41174835
0.85195768 -0.30533543 0.42536855
0.67775345 -0.40125629 0.61615235
0.47047076 -0.51761049 0.71465838
0.37504175 0.17492342 0.91035455
0.63452059 0.10722724 0.76543188
0.90030527 -0.070643999 0.42948776
0.8858037 0.17475276 0.42989919
0.80132639 -0.40251973 0.44255391
0.93787956 -0.024652055 0.34608415
0.59239614 -0.4250358 0.68440586
0.54442751 -0.39949554 0.73756486
0.42883623 0.23682065 0.87178868
0.62365776 0.061395694 0.77928275
0.80777246 0.040116403 0.58812779
0.90269184 0.0086862454 0.43019989
0.89948648 0.14904684 0.41074207
0.9301725 -0.0057383743 0.36707792
0.89406866 -0.063765503 0.44336811
0.60690129 -0.40049732 0.68649298
0.46312538 -0.4830128 0.74311072
0.37504175 0.17492342 0.91035455
0.48692656 0.26386556 0.8326329
0.79776454 0.062136572 0.59975892
0.77775133 -0.52061957 0.35221893
0.92479289 0.099794567 0.36715004
0.92923498 0.034143418 0.36790839
0.90661746 -0.025467014 0.42118421
0.59114808 -0.43234816 0.68089575
0.53101736 -0.43011144 0.73008537
0.41378871 0.1997496 0.8881886
0.60783023 0.20307833 0.76765984
0.8177737 -0.018384634 0.57524616
0.88832265 -0.2241724 0.40078607
0.92390043 0.053599603 0.37886027
0.9267776 -0.036369 0.37384573
0.87630564 -0.14173914 0.46043292
0.5342381 -0.48692268 0.69101083
0.098481983 -0.63707393 0.76448554
0.39101198 0.29248819 0.87267417
0.57772219 0.20407678 0.79030985
0.83759999 0.17709668 0.51678145
0.92561346 0.015513411 0.37815216
0.90234667 -0.17519429 0.3937988
0.86292106 -0.19150746 0.46764523
0.59114808 -0.43234816 0.68089575
0.52622449 -0.41525987 0.74205601
0.36385307 -0.094534829 0.92664671
0.36744443 0.13292494 0.92049742
0.59524208 0.20654702 0.7765469
0.808442 0.084803514 0.58243448
0.81822044 -0.44035971 0.36959258
0.87398612 0.2231057 0.43170825
0.63942701 -0.58911377 0.49404252
0.91308486 -0.021684894 0.40719265
0.66352087 -0.323149 0.67477024
0.33882654 0.15841933 0.92741567
0.5328061 0.2188374 0.81745207
0.72336632 0.41115895 0.55469763
0.87517017 0.034350909 0.48259413
0.91346401 -0.19776635 0.35562897
0.80877417 -0.38404053 0.44541794
0.63559824 -0.50096703 0.58740705
0.64618802 -0.41258645 0.64203852
0.67826504 -0.16376591 0.71633601
0.19205935 0.039750017 0.98057795
0.57558966 0.13380948 0.80671656
0.27467749 -0.67583299 0.68396056
0.8363449 0.12803559 0.53304237
0.91346401 -0.19776635 0.35562897
0.83703721 -0.33687758 0.43114054
0.88939732 -0.15850787 0.42877465
0.76047462 -0.12564482 0.63709629
0.38248974 0.3055324 0.87198132
0.48174399 0.089111865 0.87176931
0.76879478 0.079239555 0.63456726
0.89864612 0.021300813 0.43815675
0.82254863 0.22799654 0.52099073
0.91044873 -0.1175541 0.3965655
0.53559899 -0.6025703 0.59164411
0.89068806 -0.085617386 0.44648004
0.61532789 -0.39828366 0.68025124
0.30515307 0.15427358 0.93972397
0.56331229 0.18373841 0.8055554
0.78656 0.022137178 0.61711681
0.8363449 0.12803559 0.53304237
0.84798777 -0.41253862 0.33275914
0.85245174 -0.32714641 0.40780047
0.82976985 -0.27184448 0.48742443
0.67449647 -0.33368704 0.65856475
0.66732544 -0.21736708 0.71234012
0.82841372 0.5596121 0.023767905
0.37200251 0.24605079 0.89502692
0.57107401 0.11920854 0.81219685
0.80422843 0.24271201 0.54250115
0.88222885 -0.18529537 0.43282551
0.84798777 -0.41253862 0.33275914
0.91759747 -0.088954546 0.38742983
0.53559899 -0.6025703 0.59164411
0.9119817 -0.10188508 0.3973774
0.3645477 0.14510454 0.91980958
0.51135755 -0.073542185 0.85621548
0.78340191 0.047320694 0.61971146
0.89487267 -0.12427629 0.42867038
0.92737657 -0.014131951 0.37386236
0.92090756 -0.045610189 0.38710341
0.94286788 0.052881468 0.32894331
0.71257812 -0.27803227 0.64415097
0.79389876 -0.13639612 0.59255451
0.29462174 0.30960599 0.90406978
0.46013293 0.220219 0.8601054
0.76286697 0.09691032 0.63925153
0.89053369 -0.082739368 0.44732976
-0.86818075 -0.46255437 0.17973764
0.87798029 -0.28270763 0.3862991
0.91310215 -0.00956921 0.40761849
0.76879919 -0.23986524 0.59280062
0.26103339 0.14376265 0.95456481
0.44574764 -0.033952281 0.8945145
0.70587069 0.087158777 0.70295793
0.84523511 0.12783331 0.51887977
0.90360379 -0.23407376 0.35876134
0.92769557 0.10423703 0.35849077
0.64436108 -0.50390619 0.57521945
0.76879919 -0.23986524 0.59280062
0.37710243 -0.15221392 0.91357785
0.16921809 0.10799793 0.97964364
0.50640661 0.23603548 0.82936096
0.75416547 0.03834597 0.65556389
0.84271628 0.129627 0.52251905
0.92818999 -0.024282759 0.37131333
0.92910963 0.08781603 0.35922655
0.94732255 -0.058487337 0.31489566
0.76879919 -0.23986524 0.59280062
0.25282529 0.29225016 0.92231739
-0.6728 -0.66717464 0.3197158
0.76286697 0.09691032 0.63925153
0.88284051 -0.13718262 0.44919211
0.92407113 -0.098077372 0.36942312
0.90736663 -0.16649182 0.38596156
0.91310215 -0.00956921 0.40761849
0.86333925 0.1768226 0.47262996
0.24374634 0.085581928 0.96605563
0.39792243 0.08806356 0.91318274
0.76286697 0.09691032 0.63925153
0.88347971 -0.037364829 0.46697697
0.89682114 -0.26058409 0.35750207
0.91171747 -0.12603819 0.39100584
0.77799344 -0.37320864 0.50541222
0.64376009 -0.44908199 0.61959523
0.25282529 0.29225016 0.92231739
-0.71635187 -0.69004494 0.10333477
0.75111502 0.098233446 0.65282184
0.86350125 0.023308221 0.50380778
0.90722382 -0.21388176 0.36221471
0.92308873 -0.033089399 0.38316092
0.8479498 -0.27624419 0.45240486
0.73484904 -0.28704634 0.61449265
0.23789731 0.11522184 0.96443182
0.46595392 0.25898728 0.84605706
0.6717326 0.057960987 0.73852271
0.74235541 0.41003454 0.52988696
0.87070656 -0.3307288 0.3639898
0.58573657 -0.67817378 0.44383886
0.70840031 -0.48780897 0.51010913
0.89946008 -0.033596363 0.43570963
0.17826974 0.078569748 0.98083973
0.42872357 0.2858057 0.85703623
0.69596183 0.047711797 0.71649194
0.86919695 -0.041437317 0.49272662
0.91529012 -0.1356298 0.37927371
0.82838845 -0.40967879 0.3820155
0.78661895 -0.38182655 0.48522064
0.84075713 -0.13412264 0.52453637
0.30661857 0.16558421 0.93731904
0.70048571 0.13480824 0.70081854
0.86500335 0.0018118724 0.50176275
0.89733362 -0.25827846 0.35788894
0.88675487 -0.2681722 0.37649632
0.9461388 0.026099155 0.32270777
0.81639004 -0.20279838 0.54072183
0.17826974 0.078569748 0.98083973
0.30065671 0.074420489 0.95082444
0.69401997 0.14566691 0.70506555
0.87746251 -0.072755665 0.47409517
0.86265278 -0.36856025 0.34640101
0.63579476 -0.6156078 0.46560931
0.8367058 -0.32304737 0.44222608
0.67463672 -0.43900695 0.59341228
0.16578588 0.077767469 0.9830907
0.42872357 0.2858057 0.85703623
0.69596183 0.047711797 0.71649194
-0.57993752 -0.7806226 0.23302536
0.89798748 0.069604255 0.43448111
0.88675487 -0.2681722 0.37649632
0.97369468 -0.019986747 0.22697841
0.71692646 -0.36264238 0.5954048
0.7053386 -0.0046656262 0.70885515
0.23487562 0.18644992 0.95397586
0.42872357 0.2858057 0.85703623
0.6717326 0.057960987 0.73852271
0.87043482 -0.15140405 0.46842295
0.92051578 -0.048921358 0.38763052
0.92690271 -0.012767412 0.37508443
0.82407099 -0.34020701 0.45295268
0.74690622 -0.31305084 0.58662623
0.74556065 -0.068061627 0.6629532
0.41160375 0.046500098 0.9101758
0.62800443 0.061649159 0.77576399
0.84297812 -0.022956859 0.53745776
0.92141664 0.2478743 0.29924858
0.92893839 -0.00099940994 0.370233
0.92719203 -0.0024021566 0.3745788
0.76633024 -0.24361889 0.59446436
0.22594881 0.23683971 0.94490957
0.96141839 -0.037674088 0.27249825
0.61702216 0.18242601 0.76550919
0.85076642 -0.056067873 0.5225445
0.90030187 -0.18066004 0.39600307
0.85246229 -0.36268848 0.37651724
0.914262 -0.082301356 0.39667547
0.95264518 -0.067125864 0.29658285
0.48551759 -0.21293741 0.84789759
0.25012395 0.24113704 0.9377051
0.27966556 0.25773808 0.92485583
0.88292015 0.08637847 0.46150935
0.83681583 0.016700165 0.54722977
0.91719574 -0.063391596 0.39336187
0.90487891 -0.23935509 0.35199893
0.85391498 -0.30215493 0.42371166
0.82576787 0.095993668 0.55578107
0.22490738 0.059042461 0.97258967
0.6306774 0.14046022 0.76322794
0.83909625 -0.011757066 0.54385597
0.77736521 -0.55467409 0.2967152
0.90753078 -0.21820822 0.3588497
0.896299 -0.18647693 0.40233621
0.92906362 -0.085998297 0.35978481
0.27456117 0.15971999 0.94821185
0.41853404 0.2729457 0.86621588
0.58768278 0.15593235 0.7939232
0.83385676 0.083385319 0.54564625
0.91357148 0.058748119 0.40241241
0.92884016 -0.045223221 0.36771029
0.94049466 0.066676855 0.33320269
0.92595297 -0.123315 0.35693774
0.13764833 0.14969146 0.9791044
-0.74154627 -0.55672061 0.37439466
0.61418515 0.060067222 0.78687263
0.8562448 -0.073362745 0.51133424
0.9173646 0.00020671502 0.39804792
0.92267632 0.087409221 0.3755371
0.90164495 -0.15509532 0.40371019
0.90240979 -0.15320832 0.40272051
0.22320372 0.20044392 0.95394045
0.24829587 0.26426965 0.93193924
0.73554081 0.16515979 0.65704042
0.79122037 0.046352882 0.60977179
0.90354753 -0.17140475 0.3927114
0.57532007 -0.68742067 0.4432376
0.89442068 -0.18823172 0.40568528
0.27908915 0.12889728 0.9515748
0.26008111 0.21783127 0.94069517
0.4652794 0.1478496 0.87272882
0.80525792 0.042535294 0.59139693
0.83912319 -0.43150878 0.3311685
0.928379 0.064181522 0.36605084
0.86415237 -0.30128267 0.40307504
0.06356144 0.12054407 0.99067104
0.33316889 0.23096508 0.91414088
0.48975289 0.24622123 0.83637148
0.81130534 0.038574763 0.58334863
0.7500549 -0.55847937 0.35428593
0.93437588 0.043729763 0.35359493
0.89442068 -0.18823172 0.40568528
0.35383189 -0.41474983 0.83832312
0.65698278 0.68263704 0.31996936
0.24829587 0.26426965 0.93193924
0.50636864 0.24936299 0.82547498
0.83161467 -0.03613358 0.55417633
0.90354753 -0.17140475 0.3927114
0.91634506 -0.17353414 0.360829
0.7686373 -0.44977471 0.45486188
0.58204389 0.62575424 0.51928473
-0.98336345 -0.17612873 0.044439796
0.48128542 0.22958151 0.84596497
0.79956889 0.035497956 0.59952432
0.88754749 -0.21381555 0.40809593
0.88759243 -0.30253434 0.34735104
0.92573774 0.0058680535 0.37812066
0.58003193 0.62456751 0.52295166
0.91896778 0.29922366 0.25683361
0.62649649 0.19949758 0.75346059
0.78493983 -0.09591645 0.61210251
0.90950662 -0.098732896 0.40379375
0.92503685 -0.091444902 0.36870673
0.83223599 -0.35909703 0.42241293
0.11817189 0.18372467 0.97584867
0.19242984 0.27686188 0.94144475
0.40561509 0.2367426 0.88285291
0.72218585 0.11550053 0.68198764
0.83759034 -0.33842495 0.42884851
0.93393856 0.11532568 0.33831725
0.93389368 0.0058726068 0.35750267
0.68645561 0.70371801 0.18319303
0.12340576 0.15282208 0.98051846
0.42336395 0.23714335 0.87437171
0.72218585 0.11550053 0.68198764
0.82901466 -0.35772261 0.42984793
0.92414361 -0.114956 0.36434007
0.93176645 -0.0019427355 0.36305296
0.72912198 -0.17712235 0.66106647
0.032520656 0.15730871 0.98701382
0.14765081 0.25047666 0.95679712
0.67320353 0.28443435 0.68256438
0.72218585 0.11550053 0.68198764
0.88772482 -0.078724377 0.45359355
0.93676567 0.047865961 0.34666824
0.7106303 -0.3322165 0.62019098
0.032520656 0.15730871 0.98701382
0.34394339 0.14383504 0.92790866
0.41831023 0.19390631 0.8873651
0.8128047 0.036851037 0.58136952
0.91200864 -0.0095089674 0.41006079
0.91220164 -0.21208958 0.35057965
0.94544071 -0.091642991 0.3126395
0.80790365 0.26091918 0.52840585
0.047957756 0.15445296 0.98683548
0.14765081 0.25047666 0.95679712
0.67320353 0.28443435 0.68256438
0.69951111 0.12152466 0.70421302
0.87707406 -0.2141854 0.42995998
0.91220164 -0.21208958 0.35057965
0.92571616 -0.037254531 0.37637973
0.020118725 0.15638095 0.98749191
0.91000473 0.38121995 0.16298077
0.3892414 0.16372336 0.90646893
0.72190899 0.10919101 0.68331897
0.9150877 0.076270871 0.39597654
0.90026575 -0.25030705 0.35618532
0.91652471 -0.099343725 0.38744456
0.13403995 0.19711338 0.97117436
0.42076123 -0.036222141 0.90644795
0.45889309 0.4833127 0.74553734
0.62391758 0.067911156 0.77853388
0.76169264 -0.33206141 0.55638081
0.93089718 -0.065720968 0.35932058
0.44575241 -0.089037128 0.89071733
0.54714316 0.83063054 0.10337938
0.25835085 0.26377985 0.92934114
0.66643697 0.16027392 0.72813052
0.91272652 0.13738908 0.38477868
0.91162688 -0.19985439 0.35915822
0.21985416 0.14697596 0.96439737
0.39273345 0.068210632 0.91711926
0.66643697 0.16027392 0.72813052
0.75828117 -0.349197 0.55051893
0.85752499 -0.37256387 0.35474935
0.1796501 0.23984785 0.95404345
0.42894441 -0.060069837 0.90133137
0.35307884 0.3686538 0.85990101
0.58264035 0.19522643 0.78893399
0.80268681 -0.060409702 0.5933333
0.96620423 -0.25317222 0.048509289
0.27378175 0.10565492 0.95597106
0.1151633 0.21453284 0.96990371
0.34855017 0.22413546 0.9100967
0.52559394 0.25616071 0.81125379
0.77805901 -0.032734644 0.62733775
0.94869089 0.20471694 0.24099101
-0.66090941 -0.33569238 0.67119998
0.25835085 0.26377985 0.92934114
0.52559394 0.25616071 0.81125379
0.8387562 -0.062398519 0.54092008
0.84780633 -0.40297487 0.34472552
0.11113034 0.17345217 0.97855216
0.39682296 0.90587574 0.14805616
0.33965585 0.14282866 0.92964178
0.39726499 0.20659259 0.89414763
0.70596367 -0.11824694 0.69830722
0.20599575 0.10506609 0.9728961
0.070180058 0.14838736 0.98643601
0.32885498 0.4582867 0.82572865
0.49756137 0.067795515 0.86477536
0.71167499 -0.16091573 0.68383104
0.28463513 0.093597732 0.95405579
0.32064515 0.045687906 0.9460969
0.24069864 0.22303015 0.94462782
0.41885695 0.2310368 0.878169
0.9113217 -0.010594493 0.41155866
0.83755744 -0.40689671 0.36459923
0.39111003 -0.10672719 0.91413468
-0.88863754 -0.29849488 0.34817255
0.21184489 0.32420987 0.9219597
0.38664064 0.29435334 0.87399375
0.87674665 -0.080516472 0.4741649
0.34718481 -0.057399053 0.93603843
0.16278043 0.16829614 0.9722032
0.37505955 0.017819364 0.92682952
0.41487435 -0.11666194 0.90236878
0.6954875 0.044450965 0.71716189
0.56925142 0.78684741 0.23837785
0.50932533 0.85653865 0.083242252
0.32804939 0.45476842 0.82799107
0.49242198 0.033290781 0.86971968
0.91814315 -0.30847114 0.248714
0.35547227 -0.13943987 0.9242273
0.32334518 -0.026965911 0.9458968
0.4667863 0.64146632 0.60879517
0.25891677 0.23755118 0.93623263
0.51915723 -0.17892006 0.83574122
0.69002289 -0.26444316 0.67374939
0.39972839 -0.086827464 0.91251206
0.47207779 -0.13304861 0.87145895
0.4176777 -0.093198836 0.90380269
0.51915723 -0.17892006 0.83574122
0.48622692 0.85123926 0.19742079
0.47997525 -0.21392605 0.85079926
0.32936519 0.080447644 0.9407692
0.34816447 -0.16990736 0.92190725
0.41263372 -0.25571084 0.87426841
0.63381732 0.039541442 0.77247143
0.21753854 0.050438989 0.97474766
-0.78956234 0.35676691 0.49930826
0.27933061 0.096158877 0.95536792
0.39031357 0.22132675 0.89368325
0.88048261 0.0032376484 0.47406733
0.18815532 0.17454061 0.96650565
0.45462465 -0.1562212 0.87687594
0.42672509 -0.058757138 0.90247065
0.32713878 -0.16505344 0.93045026
0.69923598 -0.4086819 0.58655614
0.41654205 -0.2946749 0.86003453
0.2225689 0.11033541 0.96865326
0.35628539 0.028347867 0.93394703
0.44805059 -0.14428766 0.88228774
0.70261306 0.41726688 0.57638806
0.58623743 -0.33695418 0.73674119
0.5229587 -0.31216919 0.793136
0.62765247 0.061536681 0.77605772
0.49148265 -0.34904757 0.79787874
0.27993119 0.37011716 0.88580579
0.4107767 -0.033960238 0.91110325
0.64789796 -0.20432475 0.73381168
0.5229587 -0.31216919 0.793136
0.24125578 -0.53170967 0.81183773
0.41127557 -0.22492619 0.88332367
0.28262728 0.17213616 0.94365829
0.28695399 0.19151443 0.93860525
0.60546011 -0.084765628 0.79134876
0.51388985 -0.34555382 0.7851814
0.35131595 -0.47078553 0.80928236
0.51893681 -0.30869401 0.79712766
0.36015332 -0.043149482 0.93189466
0.27406153 0.20216069 0.94022411
0.60705554 -0.50859225 0.61058784
0.15688035 -0.57988524 0.79945087
0.29997954 -0.45377874 0.83910495
0.58679181 -0.10389335 0.80304527
0.49148265 -0.34904757 0.79787874
0.47095996 -0.088718869 0.87768197
0.19436555 0.21637784 0.95676678
0.5413835 -0.36193869 0.75888354
0.4770723 -0.40415603 0.78042299
0.58121634 -0.2891379 0.76064897
0.33055663 -0.058814734 0.94195175
0.36015332 -0.043149482 0.93189466
0.37784961 -0.1944539 0.90521675
0.47991171 0.22924285 0.84683675
0.2431111 -0.46076459 0.8535766
0.67273116 -0.060865227 0.73737937
0.23141044 -0.030904159 0.97236532
0.47390616 -0.13925642 0.8694945
0.4165822 -0.13230535 0.89941901
0.85170841 -0.083818913 0.5172689
0.62714624 0.235955 0.7423023
0.64873284 -0.2826046 0.70659775
0.51529682 -0.33841011 0.78736764
0.64195096 -0.039630491 0.76572084
-0.84632826 0.14553373 0.51239479
0.5138905 -0.1190954 0.84954858
0.11445719 -0.52440459 0.84374142
0.58537143 0.15032925 0.79670656
0.59335828 0.042719968 0.8038041
0.69597721 0.0065595834 0.71803397
0.86228883 -0.18709944 0.47058669
0.61855948 -0.30280089 0.72504878
0.32544205 0.17466506 0.92928982
0.54178846 -0.29685211 0.78634858
0.59846681 -0.09946841 0.79494876
0.695669 -0.29449585 0.65522271
0.67266792 -0.023905177 0.73955822
0.23858996 -0.52598673 0.81634104
0.27378589 -0.52310866 0.80709267
-0.90012032 0.43204635 0.055851538
0.50120831 -0.25949067 0.82550281
0.26239005 0.11491468 0.95809501
0.7305668 0.015361844 0.68266833
0.64189261 0.063279189 0.76417917
0.64512372 0.14295074 0.75058669
0.53475523 -0.30086204 0.78963214
0.63996065 0.015468153 0.76825202
0.28850991 -0.49109995 0.82193846
0.61674148 -0.26916695 0.73971558
-0.74310827 0.6603083 0.10855011
0.71249294 -0.2290199 0.66325235
0.54692745 -0.081824847 0.83317173
0.66679901 0.031632252 0.7445659
0.68739009 -0.11953874 0.71638358
0.71471536 0.12463624 0.68822062
0.92232984 -0.014659066 0.38612539
0.59293824 0.31404674 0.74148428
0.69449776 -0.11486503 0.71026671
0.74861974 -0.011854989 0.66289359
0.60127568 0.10510267 0.79209906
0.23225969 -0.44517103 0.86479956
0.93434483 -0.35427678 0.038570993
0.78413284 -0.14157921 0.60422766
0.61065328 -0.085405514 0.78727907
0.66576672 -0.2024954 0.71815753
0.086048856 -0.46624219 0.88046223
0.63970894 0.045642287 0.76726091
0.94272506 -0.32993224 0.049133703
0.42649019 -0.18649934 0.88505602
0.59293824 0.31404674 0.74148428
0.097818054 -0.50840825 0.85554242
0.73850596 -0.11104127 0.66504031
0.58848315 0.044345263 0.80729246
-0.42062494 0.62848556 0.65427864
0.63425815 -0.060381025 0.77075994
0.081054188 0.23267525 0.96917099
0.10079249 -0.497383 0.86165601
0.018411022 -0.54712379 0.83684921
0.70738471 0.020699384 0.70652562
-0.39381912 0.095289066 0.91423541
0.73287117 -0.16018309 0.66124207
0.59293824 0.31404674 0.74148428
0.66421402 0.028594881 0.74699539
0.59624344 -0.27644938 0.75370389
0.62812263 0.062078245 0.77563405
-0.79368263 0.17569183 0.58240896
0.28930458 0.22154595 0.93124664
0.41976511 0.21482006 0.88184446
0.48290682 -0.12939891 0.86605829
0.43785563 0.24099943 0.86614186
0.7431618 -0.11428795 0.65927893
0.074808113 -0.25127462 0.96502066
-0.56827134 0.77804363 0.26779816
0.94447637 -0.14500821 0.29485089
0.0066947276 0.43583572 0.90000135
0.66941249 0.18814951 0.71867007
0.72578418 0.19193478 0.66060454
0.61546773 -0.25671849 0.74518126
-0.56827134 0.77804363 0.26779816
-0.99846637 0.055086061 0.0055199061
-0.1206573 0.50751406 0.85315377
0.49626708 -0.12908347 0.85851997
0.68804324 -0.063247792 0.72290826
-0.18086743 0.22905104 0.95646358
-0.0050816908 0.84362686 0.53690583
0.90220356 0.00096850295 0.43130931
0.025589058 0.52809292 0.8488009
0.43160105 -0.34866756 0.83195645
0.72578418 0.19193478 0.66060454
0.010638736 -0.53254724 0.84633338
0.25942326 -0.46523634 0.84631836
-0.68601912 0.11756247 0.71802294
0.96119964 0.028054988 0.2744233
0.12208681 -0.079743646 0.9893108
0.54488486 -0.34900421 0.76242805
0.13304169 -0.50709516 0.85156
0.48955631 -0.78867257 0.37192777
-0.80844587 0.25019225 0.53274673
0.93150979 -0.069277771 0.35705763
0.090117872 0.31637108 0.94434536
0.65045941 0.014866001 0.75939554
0.6658203 -0.10725313 0.73836309
0.61546773 -0.25671849 0.74518126
0.038907584 -0.29474762 0.95478272
-0.73110062 0.50792861 0.45552212
-0.52527839 0.62617296 0.57618582
-0.53983319 0.18582533 0.82100493
-0.03221716 -0.014388761 0.99937737
-0.35360014 0.48990926 0.7968412
-0.80236423 0.27060792 0.5319615
-0.7707817 0.22534688 0.59591472
-0.52476776 0.46899229 0.71039772
-0.2461632 0.18081246 0.95221353
0.30888596 -0.46453542 0.82993758
0.41851455 -0.38018891 0.82480425
-0.014426494 -0.55273044 0.83323526
-0.73110062 0.50792861 0.45552212
-0.91262341 0.10213076 0.39583814
-0.52476776 0.46899229 0.71039772
0.30578122 -0.57980347 0.75519913
-0.16910712 0.19747134 0.96561271
-0.78250331 0.21126555 0.58570939
-0.46131995 0.66450202 0.58789539
-0.46082351 0.10791572 0.88090628
0.13523462 -0.11846831 0.98370558
0.30561134 -0.044308759 0.95112485
-0.42442364 0.88108176 0.20870917
-0.50525755 0.81718433 0.27735275
-0.7707817 0.22534688 0.59591472
-0.53983319 0.18582533 0.82100493
-0.35683689 0.46834278 0.80828369
-0.15176299 0.34390712 0.92665845
-0.022793943 -0.58080459 0.8137238
-0.1675376 -0.42684242 0.88867128
-0.5953598 0.68985939 0.41187456
-0.97892869 0.17492652 0.10535302
-0.43465579 0.57441628 0.69362831
0.033525594 -0.04172805 0.99856639
0.30157873 -0.58485848 0.75298798
-0.72067487 0.56546605 0.40109321
-0.61989653 0.35580319 0.69937998
-0.45264733 0.47194797 0.75655502
-0.47007743 0.35024467 0.81015795
0.016750222 -0.26778015 0.96333444
0.17043631 -0.47704098 0.8621968
-0.11703085 -0.32883111 0.93710929
-0.82394624 0.26060113 0.50318944
-0.66291946 0.29686683 0.68731934
-0.43563583 0.35459736 0.82733434
-0.28048193 -0.063113563 0.95778209
0.099762961 -0.64722884 0.75573951
-0.82394624 0.26060113 0.50318944
-0.6482408 0.57839704 0.49521774
-0.5649389 0.065093763 0.82256114
-0.40331319 0.1926564 0.89455122
0.016750222 -0.26778015 0.96333444
0.063367717 -0.62252748 0.78002828
0.20322348 -0.53126675 0.82246929
-0.82223868 0.26894882 0.50158757
-0.7657001 0.25045463 0.59243208
-0.26322237 0.17851849 0.94807446
-0.33428457 0.4632616 0.82075733
0.076822199 -0.58269966 0.80904859
-0.070240915 -0.43645713 0.89697903
-0.086120494 -0.45479777 0.88642108
-0.7316159 0.52647585 0.43308356
-0.88337183 0.34781429 0.31413275
-0.45561764 0.25501913 0.8528645
-0.31372225 0.45799008 0.83175927
-0.41130605 0.10177621 0.90579736
-0.28234306 0.054869283 0.95774299
-0.26321083 -0.41248769 0.87210894
-0.73822647 0.22790506 0.6348865
-0.9092117 0.34657407 0.23069571
-0.25204441 0.17515901 0.95173156
-0.41335934 0.049812421 0.90920436
0.088620856 -0.56941336 0.81726062
0.050307062 -0.60857344 0.79190123
-0.21977545 0.38847241 0.8948676
-0.80766827 0.46120062 0.36737725
-0.63359213 0.47058347 0.61409473
-0.47034085 0.23433229 0.85080415
-0.49918789 0.12093249 0.85801327
-0.49189892 0.044535488 0.86951256
0.010823014 -0.54069877 0.84114665
0.49010459 -0.48614457 0.72350609
-0.82616287 0.23455018 0.51229018
-0.90232313 0.41549668 0.11478481
-0.40834048 0.45571169 0.79093933
-0.51996893 0.30450979 0.79806393
-0.56376344 0.16596118 0.80909061
0.011603162 -0.55395943 0.83246285
0.037565451 -0.61968726 0.78394926
-0.75983691 0.17784339 0.62531561
-0.71852994 0.17106013 0.67413145
-0.47714689 0.099182278 0.87320888
-0.53165066 0.4015654 0.74571627
-0.57114011 0.17094535 0.80285525
-0.01903034 -0.55257028 0.83324909
0.0022247557 -0.56581688 0.82452798
-0.81281918 0.43153816 0.39127967
-0.73116052 0.46519548 0.49899641
-0.45855388 0.34001791 0.82104576
-0.52402914 0.37934014 0.76255792
-0.35420117 -0.3010906 0.88537341
-0.30047861 0.0066783642 0.95376515
0.11851197 -0.1211231 0.98553741
-0.59298569 0.44443086 0.671453
-0.877482 0.23466416 0.41827983
-0.33243555 0.2892597 0.89767224
-0.44209215 0.32970944 0.83417404
-0.6538046 0.34211934 0.67490274
-0.0016828123 -0.6172545 0.78676164
-0.19638877 -0.19403487 0.96113575
-0.75983691 0.17784339 0.62531561
-0.81647974 0.33532584 0.47001851
-0.46508265 0.41599345 0.78143942
-0.44209215 0.32970944 0.83417404
-0.5154804 0.056575853 0.85503167
-0.41442999 0.41175729 0.81160563
-0.60586107 0.28527328 0.74266511
-0.41912469 0.13385329 0.89800763
-0.51641256 -0.19931366 0.83282179
-0.44932404 0.11752763 0.88560438
-0.59942287 -0.069996998 0.79736608
-0.93050396 0.13000876 0.34243271
-0.8519277 0.47931525 0.21089333
-0.41912469 0.13385329 0.89800763
-0.44198206 0.19262752 0.87609726
-0.63306814 0.14515634 0.76036459
-0.60307145 -0.024194499 0.79732019
-0.82147402 0.36875811 0.43496886
-0.59401327 0.24117535 0.76745218
-0.39721754 0.052511547 0.9162209
-0.54523653 0.26013228 0.79689914
-0.017401753 -0.63596308 0.77152324
-0.21075544 -0.42892769 0.87840945
0.50977117 -0.38106123 0.77131426
-0.91612846 0.2164298 0.33744147
-0.50233221 0.44243395 0.74290955
-0.47908518 0.20264503 0.85405642
-0.624107 0.22924921 0.74695057
-0.15660481 -0.45535725 0.87642717
-0.61514664 0.075995974 0.78474146
0.22234093 -0.84766173 0.48169914
-0.87631756 0.42669293 0.22360864
-0.45102602 0.18865027 0.87234545
-0.5544399 0.034300596 0.83151662
-0.66017622 0.21625605 0.71930569
-0.0059315693 -0.39115888 0.92030406
0.31072655 -0.29501352 0.90355742
-0.8426922 0.41171929 0.34692514
-0.83321017 0.22547533 0.50489765
-0.45102602 0.18865027 0.87234545
-0.65906066 0.33125338 0.67521125
-0.35521415 -0.3392261 0.8710618
-0.020237692 -0.60066921 0.79924142
-0.17919372 -0.3463189 0.92084354
-0.62917227 0.10328786 0.77037257
-0.48261553 0.13064791 0.8660332
-0.61283123 0.077088073 0.78644472
-0.63973635 0.059936333 0.76625383
-0.31089047 -0.33019543 0.89124531
0.24901417 -0.34849635 0.90362722
-0.84954435 0.29764971 0.43552151
-0.42850211 0.24844639 0.86871183
-0.5164777 0.25490183 0.81748134
-0.6772548 0.29075775 0.67585933
-0.48359054 -0.20210728 0.85164118
-0.0020798349 -0.50409281 0.86364698
0.30739543 -0.31494895 0.89795059
-0.84307152 0.43941888 0.31006676
-0.70274758 0.14444023 0.69662249
-0.61283123 0.077088073 0.78644472
-0.48359054 -0.20210728 0.85164118
-0.57968098 -0.037864991 0.81396329
0.033455826 -0.20359382 0.97848368
-0.83782655 0.21923813 0.49998134
-0.473611 0.09322267 0.87578666
-0.6830247 0.21944305 0.69665051
-0.67801613 0.24977989 0.69130611
0.055774093 -0.28130612 0.95799595
0.37687555 -0.39914405 0.83585215
-0.90184414 0.3352235 0.2725845
-0.8291775 0.44317603 0.34067529
-0.587304 0.093555532 0.80394113
-0.65563422 0.2006066 0.72794282
-0.63373309 0.22699142 0.7394979
-0.22202528 -0.4015803 0.88850325
0.52196938 -0.29993659 0.79848987
-0.90429324 0.27915463 0.32299602
-0.85364032 0.29110056 0.43192449
-0.5164777 0.25490183 0.81748134
-0.31313881 -0.03640667 0.94900924
-0.63373309 0.22699142 0.7394979
-0.57968098 -0.037864991 0.81396329
0.30739543 -0.31494895 0.89795059
-0.74961019 0.28279904 0.59842223
-0.61789387 0.27502319 0.73659307
-0.68123579 0.2338077 0.69372314
-0.200132 -0.45283788 0.86884129
0.017256256 -0.38805446 0.92147493
0.26687866 -0.33042908 0.90531343
0.098076656 -0.21298043 0.97212154
0.087564766 -0.97013712 0.22619997
-0.57748491 0.013132522 0.81629568
-0.32009947 -0.11564953 0.94029856
-0.61624229 0.27161777 0.73923558
-0.36423481 -0.16241693 0.91703528
0.069924057 -0.32474402 0.94321364
0.096853778 -0.19428422 0.97615218
-0.49944007 0.28126454 0.81942046
-0.82663298 0.32294157 0.46085411
-0.60938871 0.21293397 0.76374376
-0.64802861 0.17228466 0.74187398
-0.5754348 0.043219604 0.81670493
-0.24478579 -0.33146253 0.91115993
0.1096341 -0.19010766 0.97562265
0.026017694 -0.37902835 0.9250192
-0.52940291 0.20221244 0.823919
-0.74062127 -0.6167208 0.26671261
-0.65681553 0.31088206 0.68698293
-0.68812269 0.24316452 0.68363601
0.0013853393 -0.5474602 0.83683062
0.014878748 -0.41465679 0.90985626
0.096951067 -0.19527593 0.97594458
0.11595166 -0.19859783 0.97319788
-0.49419829 0.22092785 0.84080851
-0.60938871 0.21293397 0.76374376
-0.68812269 0.24316452 0.68363601
-0.30895767 -0.31083307 0.89884812
-0.55081028 0.27365431 0.7884931
0.12238361 -0.23656572 0.96387702
0.096853778 -0.19428422 0.97615218
-0.50605494 0.27448121 0.81766039
-0.80824757 0.47675422 0.3456026
-0.52473742 0.045950845 0.85002309
-0.67069072 0.27395979 0.68928945
-0.60407346 0.15814845 0.78107899
-0.55066901 0.1333027 0.82401103
0.1096341 -0.19010766 0.97562265
0.081487507 -0.215176 0.97316962
-0.45764369 0.2674042 0.84797251
-0.72783995 0.32187027 0.605515
-0.38604161 0.032822412 0.92189723
-0.16268067 -0.50019759 0.85049242
-0.52257156 0.050330434 0.85110855
-0.35440493 -0.057003539 0.93335295
-0.053609814 -0.36180627 0.93071055
-0.87098318 0.13917768 0.47118774
-0.61344212 -0.12104825 0.78040767
-0.58349389 -0.029236989 0.81159115
-0.46979916 0.015913399 0.88262987
-0.32306156 -0.18667614 0.92778403
0.16045287 -0.26432985 0.95099133
-0.65737689 0.30285338 0.69002575
-0.61960864 -0.0047548879 0.78489649
-0.47162819 -0.20891096 0.85669309
-0.3055715 -0.30528855 0.90190071
0.078490794 -0.32615879 0.9420507
0.1673602 -0.27649996 0.94632888
-0.5208329 0.13036272 0.84364611
-0.66834849 0.31784329 0.67252213
-0.67207277 0.19629861 0.7139923
-0.3055715 -0.30528855 0.90190071
0.09006267 -0.21335433 0.9728148
0.16045287 -0.26432985 0.95099133
-0.87098318 0.13917768 0.47118774
-0.65949458 -0.23840709 0.71290171
-0.68190026 0.24702078 0.68847132
-0.46979916 0.015913399 0.88262987
-0.057271477 -0.40868619 0.91087621
-0.88739014 0.2871058 0.36070618
-0.62395716 -0.2909047 0.72529441
-0.59489995 -0.044938885 0.80254251
-0.10601152 -0.52138293 0.84671211
-0.081348553 -0.40502194 0.91068089
0.075113095 -0.31350046 0.9466126
-0.60925472 0.033785481 0.79225445
-0.60974252 0.25519708 0.7503922
-0.50340533 0.2782321 0.81802809
-0.25319451 -0.13778767 0.95755267
-0.45054996 0.2857905 0.84577101
-0.31576213 -0.57323992 0.75610203
-0.60974252 0.25519708 0.7503922
-0.50340533 0.2782321 0.81802809
-0.17152195 -0.30977237 0.93521184
-0.057541393 -0.27550927 0.9595747
-0.44748411 -0.47186127 0.75967425
-0.22725396 -0.44681835 0.86527973
-0.17810412 -0.4283728 0.88587558
-0.33854279 -0.07352189 0.93807423
-0.31954458 0.023049653 0.94729084
-0.60725754 -0.02707527 0.79404354
-0.48473495 -0.12890062 0.86511081
-0.44171602 0.11709507 0.88948059
0.010290441 -0.31826845 0.94794482
-0.43710148 0.17689916 0.88184404
-0.091390878 -0.72136009 0.68650365
-0.61404884 0.27879295 0.73838907
-0.22459127 -0.3862789 0.89462131
0.073197827 -0.30815101 0.94851726
-0.44611222 0.35080341 0.82335955
-0.63173807 -0.054271061 0.77327985
-0.41274989 -0.16011406 0.89666104
-0.46765527 0.19827905 0.86138493
0.10910519 -0.19516601 0.97468275
0.00036578864 -0.28246957 0.95927626
-0.043123335 -0.61646986 0.78619671
-0.34971973 -0.23293664 0.90743417
-0.29780337 -0.13598073 0.94489282
-0.42572421 0.20861813 0.88047558
-0.5246861 0.0033749547 0.85128909
-0.32879001 0.23094131 0.91573095
-0.0480511 -0.61006045 0.79089653
-0.5104202 0.044992868 0.85874724
-0.11487353 -0.36356595 0.92445868
-0.10607569 -0.23216985 0.96687394
-0.44157586 0.22328433 0.86899644
-0.55276543 0.18340942 0.81290305
-0.11487353 -0.36356595 0.92445868
-0.43101844 0.28370053 0.85658461
-0.43807882 0.31869608 0.84054726
-0.3517426 0.34974453 0.86830634
-0.44410574 -0.46460235 0.76610357
-0.5396536 0.11190312 0.83441699
-0.0534527 -0.38215882 0.92254943
-0.46247432 0.30644527 0.8319909
-0.4274981 0.19495395 0.88274479
-0.31840613 0.11035099 0.9415096
-0.20118314 -0.47904781 0.85442299
-0.46168661 0.20515525 0.86299294
-0.43101844 0.28370053 0.85658461
-0.45214856 0.32400656 0.83101231
-0.31840613 0.11035099 0.9415096
-0.48043221 -0.02639243 0.87663478
-0.0023055244 -0.38400537 0.92332792
0.00050751073 -0.26867214 0.96323156
-0.43282315 0.33675048 0.83621955
-0.46484444 0.27159539 0.84270734
-0.1470623 -0.45121196 0.88021618
-0.29978994 -0.059993047 0.95211709
-0.41649643 0.19024205 0.88900995
-0.43751577 0.31787366 0.84115177
-0.45415631 0.25474858 0.85372424
-0.39374492 -0.11446472 0.91206515
-0.15485807 -0.26114494 0.95279706
-0.41649643 0.19024205 0.88900995
-0.45069218 0.22089992 0.86491603
-0.48201114 0.23266096 0.84470952
-0.4140566 -0.80444711 0.42593655
-0.352337 0.078787684 0.93255085
-0.02630754 -0.17187935 0.9847666
-0.40929571 0.32798985 0.85141039
-0.42153683 0.30999386 0.85217983
-0.22434564 -0.31707641 0.92148334
-0.32956514 0.0075919055 0.94410229
0.050859001 -0.24724561 0.96761709
-0.37291038 0.12419454 0.91951817
-0.29375741 0.27430138 0.91567749
-0.20475708 -0.44255313 0.8730529
-0.15485807 -0.26114494 0.95279706
-0.43371481 0.21497457 0.87502992
-0.4666515 0.22977936 0.85407138
-0.47545749 0.23861665 0.84675986
-0.38282403 -0.25279278 0.88856149
-0.28745088 -0.075755 0.95479482
-0.45151931 0.32920307 0.82931042
-0.46614239 0.25887892 0.84598637
-0.47966978 0.22206445 0.84888417
-0.26133335 -0.93884963 0.22420138
-0.21068114 -3.1444932e-05 0.97755486
-0.31304684 0.27196255 0.90996599
-0.17027868 0.11450046 0.97872102
-0.45257908 0.30947542 0.83629972
-0.36244458 0.30392525 0.8810581
-0.48856246 0.23255029 0.84096789
0.15378475 -0.19835143 0.96799123
-0.41922763 0.3123166 0.85247087
-0.040104169 -0.029756341 0.9987523
-0.3542946 -0.28388068 0.89100343
-0.42151096 0.19152354 0.88636744
-0.42872322 0.3129611 0.8474974
-0.045378108 -0.1062595 0.9933024
-0.40054819 0.1497 0.90396404
0.197035 -0.12005451 0.97301805
-0.48541021 0.22044101 0.84603941
-0.16233885 -0.013647758 0.98664069
-0.05944141 -0.048577268 0.99704915
-0.48420376 0.22885138 0.84449625
-0.15546338 0.054853201 0.98631752
-0.35528621 0.16453056 0.92016387
-0.49553096 0.22680996 0.83845472
-0.40543085 0.18237689 0.89574802
-0.43035847 0.30024433 0.85126084
-0.47025323 0.24211669 0.84867036
-0.23432253 0.16719627 0.95767343
-0.019932756 -0.17174615 0.98493958
-0.47741827 0.25042033 0.84223592
-0.47947535 0.22638576 0.84785193
-0.16927944 0.03779278 0.98484325
-0.4432455 0.19238874 0.87551135
-0.46481264 0.2427033 0.85149539
-0.40331113 0.15842089 0.90124518
-0.44871256 0.31599772 0.83594412
-0.47741827 0.25042033 0.84223592
-0.40014324 0.28208002 0.87196118
0.22363462 -0.25771844 0.93998337
-0.17398359 -0.048092086 0.9835735
-0.46240202 0.20517033 0.86260623
-0.32091337 0.23914485 0.91641921
-0.2123238 0.1468114 0.96610826
-0.087182269 -0.049367476 0.99496841
-0.47756577 0.22827789 0.84842223
-0.49599341 0.21279803 0.84184766
-0.34202951 0.18422578 0.9214536
-0.44733399 0.21709035 0.86761975
-0.43887031 0.21998544 0.87120557
-0.46504235 0.25575495 0.84754056
-0.50142843 0.21538746 0.83796054
-0.35072875 0.083469845 0.93274981
-0.49216563 0.22477806 0.84098023
-0.49411738 0.21992876 0.84111792
-0.44992504 0.10075108 0.88736498
-0.3998237 0.14836697 0.90450436
