# .PCD v0.7 - Point Cloud Data file format
VERSION 0.7
FIELDS x y z
SIZE 4 4 4
TYPE F F F
COUNT 1 1 1
WIDTH 1711
HEIGHT 1
VIEWPOINT 0 0 0 1 0 0 0
POINTS 1711
DATA ascii
0.69999999 5.9837122 1.373
0.70200002 5.9837122 1.3789999
0.69199997 5.9854264 1.355
0.69099998 5.9854264 1.3660001
0.69099998 5.9854264 1.376
0.69999999 5.9854264 1.373
0.70200002 5.9854264 1.3789999
0.69199997 5.9871411 1.355
0.69099998 5.9871411 1.3660001
0.69099998 5.9871411 1.376
0.69999999 5.9871411 1.373
0.70200002 5.9871411 1.3789999
0.69199997 5.9888554 1.355
0.69099998 5.9888554 1.3660001
0.69099998 5.9888554 1.376
0.69999999 5.9888554 1.373
0.70200002 5.9888554 1.3789999
0.69199997 5.9905705 1.355
0.69099998 5.9905705 1.3660001
0.69099998 5.9905705 1.376
0.69999999 5.9905705 1.373
0.70200002 5.9905705 1.3789999
0.69199997 5.9922848 1.355
0.69099998 5.9922848 1.3660001
0.69099998 5.9922848 1.376
0.69999999 5.9922848 1.373
0.70200002 5.9922848 1.3789999
0.69199997 5.993999 1.355
0.69099998 5.993999 1.3660001
0.69099998 5.993999 1.376
0.69999999 5.993999 1.373
0.70200002 5.993999 1.3789999
0.69199997 5.9957137 1.355
0.69099998 5.9957137 1.3660001
0.69099998 5.9957137 1.376
0.69999999 5.9957137 1.373
0.70200002 5.9957137 1.3789999
0.69199997 5.9974289 1.355
0.69099998 5.9974289 1.3660001
0.69099998 5.9974289 1.376
0.69999999 5.9974289 1.373
0.70200002 5.9974289 1.3789999
0.69199997 5.9991426 1.355
0.69099998 5.9991426 1.3660001
0.69099998 5.9991426 1.376
0.69999999 5.9991426 1.373
0.70200002 5.9991426 1.3789999
0.98299998 0.063437633 0.056000002
0.98299998 0.065152168 0.056000002
0.98299998 0.066866696 0.056000002
0.98299998 0.068581223 0.056000002
0.98299998 0.070295759 0.056000002
0.98299998 0.072010286 0.056000002
0.98299998 0.073724821 0.056000002
0.98299998 0.075439349 0.056000002
0.98299998 0.077153884 0.056000002
0.98299998 0.078868411 0.056000002
0.98299998 0.080582939 0.056000002
0.98299998 0.082297474 0.056000002
0.98299998 0.084012002 0.056000002
0.98500001 0.085726537 0.050999999
0.991 0.085726537 0.067000002
1.0039999 0.085726537 0.063000001
0.98500001 0.087441064 0.050999999
0.991 0.087441064 0.067000002
1.0039999 0.087441064 0.063000001
0.98500001 0.089155592 0.050999999
0.991 0.089155592 0.067000002
1.0039999 0.089155592 0.063000001
0.98500001 0.090870127 0.050999999
0.991 0.090870127 0.067000002
1.0039999 0.090870127 0.063000001
0.98500001 0.092584655 0.050999999
0.991 0.092584655 0.067000002
1.0039999 0.092584655 0.063000001
0.98500001 0.094299197 0.050999999
0.991 0.094299197 0.067000002
1.0039999 0.094299197 0.063000001
0.98500001 0.096013717 0.050999999
0.991 0.096013717 0.067000002
1.0039999 0.096013717 0.063000001
0.98500001 0.097728252 0.050999999
0.991 0.097728252 0.067000002
1.0039999 0.097728252 0.063000001
0.98500001 0.09944278 0.050999999
0.991 0.09944278 0.067000002
1.0039999 0.09944278 0.063000001
0.98500001 0.10115731 0.050999999
0.991 0.10115731 0.067000002
1.0039999 0.10115731 0.063000001
0.98500001 0.10287185 0.050999999
0.991 0.10287185 0.067000002
1.0039999 0.10287185 0.063000001
0.98500001 0.10458637 0.050999999
0.991 0.10458637 0.067000002
1.0039999 0.10458637 0.063000001
0.986 0.10630091 0.048
0.99400002 0.10630091 0.057999998
0.986 0.10801543 0.048
0.99400002 0.10801543 0.057999998
0.986 0.10972996 0.048
0.99400002 0.10972996 0.057999998
0.986 0.11144449 0.048
0.99400002 0.11144449 0.057999998
0.986 0.11315902 0.048
0.99400002 0.11315902 0.057999998
0.986 0.11487356 0.048
0.99400002 0.11487356 0.057999998
0.986 0.11658809 0.048
0.99400002 0.11658809 0.057999998
0.986 0.11830261 0.048
0.99400002 0.11830261 0.057999998
0.986 0.12001714 0.048
0.99400002 0.12001714 0.057999998
0.986 0.12173168 0.048
0.99400002 0.12173168 0.057999998
0.986 0.12344621 0.048
0.99400002 0.12344621 0.057999998
0.986 0.12516074 0.048
0.99400002 0.12516074 0.057999998
0.0080000004 1.05958 0.63499999
0.016000001 1.05958 0.61299998
0.023 1.05958 0.61500001
0.0080000004 1.0612946 0.63499999
0.016000001 1.0612946 0.61299998
0.023 1.0612946 0.61500001
0.0080000004 1.063009 0.63499999
0.016000001 1.063009 0.61299998
0.023 1.063009 0.61500001
0.0080000004 1.0647235 0.63499999
0.016000001 1.0647235 0.61299998
0.023 1.0647235 0.61500001
0.0080000004 1.0664381 0.63499999
0.016000001 1.0664381 0.61299998
0.023 1.0664381 0.61500001
0.0080000004 1.0681525 0.63499999
0.016000001 1.0681525 0.61299998
0.023 1.0681525 0.61500001
0.0080000004 1.0698671 0.63499999
0.016000001 1.0698671 0.61299998
0.023 1.0698671 0.61500001
0.0080000004 1.0715816 0.63499999
0.016000001 1.0715816 0.61299998
0.023 1.0715816 0.61500001
0.0080000004 1.0732962 0.63499999
0.016000001 1.0732962 0.61299998
0.023 1.0732962 0.61500001
0.0080000004 1.0750108 0.63499999
0.016000001 1.0750108 0.61299998
0.023 1.0750108 0.61500001
0.0080000004 1.0767252 0.63499999
0.016000001 1.0767252 0.61299998
0.023 1.0767252 0.61500001
0.0080000004 1.0784398 0.63499999
0.016000001 1.0784398 0.61299998
0.023 1.0784398 0.61500001
0.0080000004 1.0801543 0.62400001
0.016000001 1.0801543 0.616
0.0080000004 1.0818689 0.62400001
0.016000001 1.0818689 0.616
0.0080000004 1.0835834 0.62400001
0.016000001 1.0835834 0.616
0.0080000004 1.0852979 0.62400001
0.016000001 1.0852979 0.616
0.0080000004 1.0870124 0.62400001
0.016000001 1.0870124 0.616
0.0080000004 1.088727 0.62400001
0.016000001 1.088727 0.616
0.0080000004 1.0904415 0.62400001
0.016000001 1.0904415 0.616
0.0080000004 1.0921561 0.62400001
0.016000001 1.0921561 0.616
0.0080000004 1.0938705 0.62400001
0.016000001 1.0938705 0.616
0.0080000004 1.0955851 0.62400001
0.016000001 1.0955851 0.616
0.0080000004 1.0972996 0.62400001
0.016000001 1.0972996 0.616
0.0080000004 1.0990142 0.62400001
0.016000001 1.0990142 0.616
0.016000001 1.1007288 0.60600001
0.016000001 1.1024432 0.60600001
0.016000001 1.1041578 0.60600001
0.016000001 1.1058723 0.60600001
0.016000001 1.1075869 0.60600001
0.016000001 1.1093013 0.60600001
0.016000001 1.1110158 0.60600001
0.016000001 1.1127304 0.60600001
0.016000001 1.114445 0.60600001
0.016000001 1.1161594 0.60600001
0.016000001 1.117874 0.60600001
0.016000001 1.1195886 0.60600001
0.54799998 5.6322331 0.38800001
0.56199998 5.6322331 0.37400001
0.56900001 5.6322331 0.382
0.579 5.6322331 0.38100001
0.54799998 5.6339474 0.38800001
0.56199998 5.6339474 0.37400001
0.56900001 5.6339474 0.382
0.579 5.6339474 0.38100001
0.54799998 5.6356621 0.38800001
0.56199998 5.6356621 0.37400001
0.56900001 5.6356621 0.382
0.579 5.6356621 0.38100001
0.54799998 5.6373773 0.38800001
0.56199998 5.6373773 0.37400001
0.56900001 5.6373773 0.382
0.579 5.6373773 0.38100001
0.54799998 5.6390915 0.38800001
0.56199998 5.6390915 0.37400001
0.56900001 5.6390915 0.382
0.579 5.6390915 0.38100001
0.54799998 5.6408057 0.38800001
0.56199998 5.6408057 0.37400001
0.56900001 5.6408057 0.382
0.579 5.6408057 0.38100001
0.54799998 5.6425204 0.38800001
0.56199998 5.6425204 0.37400001
0.56900001 5.6425204 0.382
0.579 5.6425204 0.38100001
0.54799998 5.6442351 0.38800001
0.56199998 5.6442351 0.37400001
0.56900001 5.6442351 0.382
0.579 5.6442351 0.38100001
0.54799998 5.6459494 0.38800001
0.56199998 5.6459494 0.37400001
0.56900001 5.6459494 0.382
0.579 5.6459494 0.38100001
0.54799998 5.6476641 0.38800001
0.56199998 5.6476641 0.37400001
0.56900001 5.6476641 0.382
0.579 5.6476641 0.38100001
0.54799998 5.6493788 0.38800001
0.56199998 5.6493788 0.37400001
0.56900001 5.6493788 0.382
0.579 5.6493788 0.38100001
0.54799998 5.651093 0.38800001
0.56199998 5.651093 0.37400001
0.56900001 5.651093 0.382
0.579 5.651093 0.38100001
0.55000001 5.6528072 0.382
0.55800003 5.6528072 0.38699999
0.55000001 5.6545219 0.382
0.55800003 5.6545219 0.38699999
0.55000001 5.6562371 0.382
0.55800003 5.6562371 0.38699999
0.55000001 5.6579514 0.382
0.55800003 5.6579514 0.38699999
0.55000001 5.6596656 0.382
0.55800003 5.6596656 0.38699999
0.55000001 5.6613803 0.382
0.55800003 5.6613803 0.38699999
0.55000001 5.663095 0.382
0.55800003 5.663095 0.38699999
0.55000001 5.6648092 0.382
0.55800003 5.6648092 0.38699999
0.55000001 5.6665239 0.382
0.55800003 5.6665239 0.38699999
0.55000001 5.6682386 0.382
0.55800003 5.6682386 0.38699999
0.55000001 5.6699529 0.382
0.55800003 5.6699529 0.38699999
0.55000001 5.6716671 0.382
0.55800003 5.6716671 0.38699999
0.176 2.5649378 1.349
0.17900001 2.5649378 1.357
0.186 2.5649378 1.347
0.19 2.5649378 1.352
0.193 2.5649378 1.358
0.199 2.5649378 1.351
0.176 2.5666525 1.349
0.17900001 2.5666525 1.357
0.186 2.5666525 1.347
0.19 2.5666525 1.352
0.193 2.5666525 1.358
0.199 2.5666525 1.351
0.176 2.568367 1.349
0.17900001 2.568367 1.357
0.186 2.568367 1.347
0.19 2.568367 1.352
0.193 2.568367 1.358
0.199 2.568367 1.351
0.176 2.5700817 1.349
0.17900001 2.5700817 1.357
0.186 2.5700817 1.347
0.19 2.5700817 1.352
0.193 2.5700817 1.358
0.199 2.5700817 1.351
0.176 2.5717959 1.349
0.17900001 2.5717959 1.357
0.186 2.5717959 1.347
0.19 2.5717959 1.352
0.193 2.5717959 1.358
0.199 2.5717959 1.351
0.176 2.5735104 1.349
0.17900001 2.5735104 1.357
0.186 2.5735104 1.347
0.19 2.5735104 1.352
0.193 2.5735104 1.358
0.199 2.5735104 1.351
0.176 2.5752251 1.349
0.17900001 2.5752251 1.357
0.186 2.5752251 1.347
0.19 2.5752251 1.352
0.193 2.5752251 1.358
0.199 2.5752251 1.351
0.176 2.5769396 1.349
0.17900001 2.5769396 1.357
0.186 2.5769396 1.347
0.19 2.5769396 1.352
0.193 2.5769396 1.358
0.199 2.5769396 1.351
0.176 2.5786541 1.349
0.17900001 2.5786541 1.357
0.186 2.5786541 1.347
0.19 2.5786541 1.352
0.193 2.5786541 1.358
0.199 2.5786541 1.351
0.176 2.5803685 1.349
0.17900001 2.5803685 1.357
0.186 2.5803685 1.347
0.19 2.5803685 1.352
0.193 2.5803685 1.358
0.199 2.5803685 1.351
0.176 2.5820832 1.349
0.17900001 2.5820832 1.357
0.186 2.5820832 1.347
0.19 2.5820832 1.352
0.193 2.5820832 1.358
0.199 2.5820832 1.351
0.176 2.5837977 1.349
0.17900001 2.5837977 1.357
0.186 2.5837977 1.347
0.19 2.5837977 1.352
0.193 2.5837977 1.358
0.199 2.5837977 1.351
0.44600001 2.5649378 0.15700001
0.44600001 2.5666525 0.15700001
0.44600001 2.568367 0.15700001
0.44600001 2.5700817 0.15700001
0.44600001 2.5717959 0.15700001
0.44600001 2.5735104 0.15700001
0.44600001 2.5752251 0.15700001
0.44600001 2.5769396 0.15700001
0.44600001 2.5786541 0.15700001
0.44600001 2.5803685 0.15700001
0.44600001 2.5820832 0.15700001
0.44600001 2.5837977 0.15700001
0.43599999 2.5855124 0.15700001
0.44499999 2.5855124 0.16500001
0.43599999 2.5872269 0.15700001
0.44499999 2.5872269 0.16500001
0.43599999 2.5889416 0.15700001
0.44499999 2.5889416 0.16500001
0.43599999 2.5906558 0.15700001
0.44499999 2.5906558 0.16500001
0.43599999 2.5923703 0.15700001
0.44499999 2.5923703 0.16500001
0.43599999 2.5940847 0.15700001
0.44499999 2.5940847 0.16500001
0.43599999 2.5957994 0.15700001
0.44499999 2.5957994 0.16500001
0.43599999 2.5975139 0.15700001
0.44499999 2.5975139 0.16500001
0.43599999 2.5992284 0.15700001
0.44499999 2.5992284 0.16500001
0.43599999 2.6009431 0.15700001
0.44499999 2.6009431 0.16500001
0.43599999 2.6026576 0.15700001
0.44499999 2.6026576 0.16500001
0.44400001 2.6043723 0.168
0.454 2.6043723 0.168
0.44400001 2.6060867 0.168
0.454 2.6060867 0.168
0.44400001 2.6078014 0.168
0.454 2.6078014 0.168
0.44400001 2.6095157 0.168
0.454 2.6095157 0.168
0.44400001 2.6112301 0.168
0.454 2.6112301 0.168
0.44400001 2.6129446 0.168
0.454 2.6129446 0.168
0.44400001 2.6146593 0.168
0.454 2.6146593 0.168
0.44400001 2.6163738 0.168
0.454 2.6163738 0.168
0.44400001 2.6180882 0.168
0.454 2.6180882 0.168
0.44400001 2.619803 0.168
0.454 2.619803 0.168
0.44400001 2.6215174 0.168
0.454 2.6215174 0.168
0.44400001 2.6232321 0.168
0.454 2.6232321 0.168
0.44400001 2.6249464 0.168
0.454 2.6249464 0.168
0.44299999 2.6266613 0.17399999
0.44299999 2.6283755 0.17399999
0.44299999 2.6300902 0.17399999
0.44299999 2.6318045 0.17399999
0.44299999 2.6335192 0.17399999
0.44299999 2.6352336 0.17399999
0.44299999 2.6369481 0.17399999
0.44299999 2.6386628 0.17399999
0.44299999 2.640377 0.17399999
0.44299999 2.642092 0.17399999
0.44299999 2.6438062 0.17399999
0.44299999 2.6455209 0.17399999
0.368 2.4466355 1.25
0.368 2.4483497 1.25
0.368 2.4500644 1.25
0.368 2.4517789 1.25
0.368 2.4534936 1.25
0.368 2.4552078 1.25
0.368 2.4569225 1.25
0.34200001 2.458637 1.245
0.34400001 2.458637 1.256
0.354 2.458637 1.2410001
0.359 2.458637 1.243
0.366 2.458637 1.239
0.34200001 2.4603515 1.245
0.34400001 2.4603515 1.256
0.354 2.4603515 1.2410001
0.359 2.4603515 1.243
0.366 2.4603515 1.239
0.34200001 2.4620662 1.245
0.34400001 2.4620662 1.256
0.354 2.4620662 1.2410001
0.359 2.4620662 1.243
0.366 2.4620662 1.239
0.34200001 2.4637804 1.245
0.34400001 2.4637804 1.256
0.354 2.4637804 1.2410001
0.359 2.4637804 1.243
0.366 2.4637804 1.239
0.34200001 2.4654951 1.245
0.34400001 2.4654951 1.256
0.354 2.4654951 1.2410001
0.359 2.4654951 1.243
0.366 2.4654951 1.239
0.34200001 2.4672096 1.245
0.34400001 2.4672096 1.256
0.354 2.4672096 1.2410001
0.359 2.4672096 1.243
0.366 2.4672096 1.239
0.34200001 2.4689243 1.245
0.34400001 2.4689243 1.256
0.354 2.4689243 1.2410001
0.359 2.4689243 1.243
0.366 2.4689243 1.239
0.34200001 2.4706388 1.245
0.34400001 2.4706388 1.256
0.354 2.4706388 1.2410001
0.359 2.4706388 1.243
0.366 2.4706388 1.239
0.34200001 2.4723535 1.245
0.34400001 2.4723535 1.256
0.354 2.4723535 1.2410001
0.359 2.4723535 1.243
0.366 2.4723535 1.239
0.34200001 2.4740677 1.245
0.34400001 2.4740677 1.256
0.354 2.4740677 1.2410001
0.359 2.4740677 1.243
0.366 2.4740677 1.239
0.34200001 2.4757822 1.245
0.34400001 2.4757822 1.256
0.354 2.4757822 1.2410001
0.359 2.4757822 1.243
0.366 2.4757822 1.239
0.34200001 2.4774969 1.245
0.34400001 2.4774969 1.256
0.354 2.4774969 1.2410001
0.359 2.4774969 1.243
0.366 2.4774969 1.239
0.34200001 2.4792113 1.245
0.34400001 2.4792113 1.256
0.354 2.4792113 1.2410001
0.359 2.4792113 1.243
0.366 2.4792113 1.239
0.49599999 4.622375 0.93900001
0.50099999 4.622375 0.94400001
0.49599999 4.6240892 0.93900001
0.50099999 4.6240892 0.94400001
0.49599999 4.6258039 0.93900001
0.50099999 4.6258039 0.94400001
0.49599999 4.6275182 0.93900001
0.50099999 4.6275182 0.94400001
0.49599999 4.6292334 0.93900001
0.50099999 4.6292334 0.94400001
0.49599999 4.6309471 0.93900001
0.50099999 4.6309471 0.94400001
0.49599999 4.6326618 0.93900001
0.50099999 4.6326618 0.94400001
0.49599999 4.6343765 0.93900001
0.50099999 4.6343765 0.94400001
0.49599999 4.6360912 0.93900001
0.50099999 4.6360912 0.94400001
0.49599999 4.6378055 0.93900001
0.50099999 4.6378055 0.94400001
0.49599999 4.6395197 0.93900001
0.50099999 4.6395197 0.94400001
0.49599999 4.6412349 0.93900001
0.50099999 4.6412349 0.94400001
0.5 4.6429491 0.92699999
0.505 4.6429491 0.93300003
0.50800002 4.6429491 0.94599998
0.5 4.6446633 0.92699999
0.505 4.6446633 0.93300003
0.50800002 4.6446633 0.94599998
0.5 4.646378 0.92699999
0.505 4.646378 0.93300003
0.50800002 4.646378 0.94599998
0.5 4.6480932 0.92699999
0.505 4.6480932 0.93300003
0.50800002 4.6480932 0.94599998
0.5 4.649807 0.92699999
0.505 4.649807 0.93300003
0.50800002 4.649807 0.94599998
0.5 4.6515217 0.92699999
0.505 4.6515217 0.93300003
0.50800002 4.6515217 0.94599998
0.5 4.6532364 0.92699999
0.505 4.6532364 0.93300003
0.50800002 4.6532364 0.94599998
0.5 4.6549511 0.92699999
0.505 4.6549511 0.93300003
0.50800002 4.6549511 0.94599998
0.5 4.6566653 0.92699999
0.505 4.6566653 0.93300003
0.50800002 4.6566653 0.94599998
0.5 4.6583796 0.92699999
0.505 4.6583796 0.93300003
0.50800002 4.6583796 0.94599998
0.5 4.6600947 0.92699999
0.505 4.6600947 0.93300003
0.50800002 4.6600947 0.94599998
0.5 4.661809 0.92699999
0.505 4.661809 0.93300003
0.50800002 4.661809 0.94599998
0.49700001 4.6635232 0.935
0.50700003 4.6635232 0.92900002
0.51099998 4.6635232 0.93800002
0.49700001 4.6652379 0.935
0.50700003 4.6652379 0.92900002
0.51099998 4.6652379 0.93800002
0.49700001 4.6669531 0.935
0.50700003 4.6669531 0.92900002
0.51099998 4.6669531 0.93800002
0.49700001 4.6686668 0.935
0.50700003 4.6686668 0.92900002
0.51099998 4.6686668 0.93800002
0.48199999 4.6429491 1.4220001
0.484 4.6429491 1.429
0.48699999 4.6429491 1.433
0.495 4.6429491 1.429
0.49700001 4.6429491 1.4349999
0.48199999 4.6446633 1.4220001
0.484 4.6446633 1.429
0.48699999 4.6446633 1.433
0.495 4.6446633 1.429
0.49700001 4.6446633 1.4349999
0.48199999 4.646378 1.4220001
0.484 4.646378 1.429
0.48699999 4.646378 1.433
0.495 4.646378 1.429
0.49700001 4.646378 1.4349999
0.48199999 4.6480932 1.4220001
0.484 4.6480932 1.429
0.48699999 4.6480932 1.433
0.495 4.6480932 1.429
0.49700001 4.6480932 1.4349999
0.48199999 4.649807 1.4220001
0.484 4.649807 1.429
0.48699999 4.649807 1.433
0.495 4.649807 1.429
0.49700001 4.649807 1.4349999
0.48199999 4.6515217 1.4220001
0.484 4.6515217 1.429
0.48699999 4.6515217 1.433
0.495 4.6515217 1.429
0.49700001 4.6515217 1.4349999
0.48199999 4.6532364 1.4220001
0.484 4.6532364 1.429
0.48699999 4.6532364 1.433
0.495 4.6532364 1.429
0.49700001 4.6532364 1.4349999
0.48199999 4.6549511 1.4220001
0.484 4.6549511 1.429
0.48699999 4.6549511 1.433
0.495 4.6549511 1.429
0.49700001 4.6549511 1.4349999
0.48199999 4.6566653 1.4220001
0.484 4.6566653 1.429
0.48699999 4.6566653 1.433
0.495 4.6566653 1.429
0.49700001 4.6566653 1.4349999
0.48199999 4.6583796 1.4220001
0.484 4.6583796 1.429
0.48699999 4.6583796 1.433
0.495 4.6583796 1.429
0.49700001 4.6583796 1.4349999
0.48199999 4.6600947 1.4220001
0.484 4.6600947 1.429
0.48699999 4.6600947 1.433
0.495 4.6600947 1.429
0.49700001 4.6600947 1.4349999
0.48199999 4.661809 1.4220001
0.484 4.661809 1.429
0.48699999 4.661809 1.433
0.495 4.661809 1.429
0.49700001 4.661809 1.4349999
0.48699999 4.6635232 1.4349999
0.49700001 4.6635232 1.425
0.49700001 4.6635232 1.4349999
0.48699999 4.6652379 1.4349999
0.49700001 4.6652379 1.425
0.49700001 4.6652379 1.4349999
0.48699999 4.6669531 1.4349999
0.49700001 4.6669531 1.425
0.49700001 4.6669531 1.4349999
0.48699999 4.6686668 1.4349999
0.49700001 4.6686668 1.425
0.49700001 4.6686668 1.4349999
0.61000001 1.3527648 0.55000001
0.61500001 1.3527648 0.56099999
0.62099999 1.3527648 0.56999999
0.63099998 1.3527648 0.56699997
0.63800001 1.3527648 0.57200003
0.64399999 1.3527648 0.58200002
0.61000001 1.3544792 0.55000001
0.61500001 1.3544792 0.56099999
0.62099999 1.3544792 0.56999999
0.63099998 1.3544792 0.56699997
0.63800001 1.3544792 0.57200003
0.64399999 1.3544792 0.58200002
0.61000001 1.3561938 0.55000001
0.61500001 1.3561938 0.56099999
0.62099999 1.3561938 0.56999999
0.63099998 1.3561938 0.56699997
0.63800001 1.3561938 0.57200003
0.64399999 1.3561938 0.58200002
0.61000001 1.3579082 0.55000001
0.61500001 1.3579082 0.56099999
0.62099999 1.3579082 0.56999999
0.63099998 1.3579082 0.56699997
0.63800001 1.3579082 0.57200003
0.64399999 1.3579082 0.58200002
0.61000001 1.3596227 0.55000001
0.61500001 1.3596227 0.56099999
0.62099999 1.3596227 0.56999999
0.63099998 1.3596227 0.56699997
0.63800001 1.3596227 0.57200003
0.64399999 1.3596227 0.58200002
0.61000001 1.3613373 0.55000001
0.61500001 1.3613373 0.56099999
0.62099999 1.3613373 0.56999999
0.63099998 1.3613373 0.56699997
0.63800001 1.3613373 0.57200003
0.64399999 1.3613373 0.58200002
0.61000001 1.3630519 0.55000001
0.61500001 1.3630519 0.56099999
0.62099999 1.3630519 0.56999999
0.63099998 1.3630519 0.56699997
0.63800001 1.3630519 0.57200003
0.64399999 1.3630519 0.58200002
0.61000001 1.3647664 0.55000001
0.61500001 1.3647664 0.56099999
0.62099999 1.3647664 0.56999999
0.63099998 1.3647664 0.56699997
0.63800001 1.3647664 0.57200003
0.64399999 1.3647664 0.58200002
0.61000001 1.3664809 0.55000001
0.61500001 1.3664809 0.56099999
0.62099999 1.3664809 0.56999999
0.63099998 1.3664809 0.56699997
0.63800001 1.3664809 0.57200003
0.64399999 1.3664809 0.58200002
0.61000001 1.3681955 0.55000001
0.61500001 1.3681955 0.56099999
0.62099999 1.3681955 0.56999999
0.63099998 1.3681955 0.56699997
0.63800001 1.3681955 0.57200003
0.64399999 1.3681955 0.58200002
0.61000001 1.3699101 0.55000001
0.61500001 1.3699101 0.56099999
0.62099999 1.3699101 0.56999999
0.63099998 1.3699101 0.56699997
0.63800001 1.3699101 0.57200003
0.64399999 1.3699101 0.58200002
0.61000001 1.3716246 0.55000001
0.61500001 1.3716246 0.56099999
0.62099999 1.3716246 0.56999999
0.63099998 1.3716246 0.56699997
0.63800001 1.3716246 0.57200003
0.64399999 1.3716246 0.58200002
0.22 5.2961855 0.118
0.22 5.2979002 0.118
0.22 5.299614 0.118
0.22 5.3013287 0.118
0.22 5.3030434 0.118
0.22 5.3047576 0.118
0.22 5.3064723 0.118
0.22 5.308187 0.118
0.22 5.3099017 0.118
0.22 5.3116159 0.118
0.22 5.3133307 0.118
0.22 5.3150454 0.118
0.23 5.3167601 0.114
0.26899999 5.3167601 0.12899999
0.23 5.3184738 0.114
0.26899999 5.3184738 0.12899999
0.23 5.3201885 0.114
0.26899999 5.3201885 0.12899999
0.23 5.3219032 0.114
0.26899999 5.3219032 0.12899999
0.23 5.3236175 0.114
0.26899999 5.3236175 0.12899999
0.23 5.3253322 0.114
0.26899999 5.3253322 0.12899999
0.23 5.3270469 0.114
0.26899999 5.3270469 0.12899999
0.23 5.3287616 0.114
0.26899999 5.3287616 0.12899999
0.23 5.3304758 0.114
0.26899999 5.3304758 0.12899999
0.23 5.3321905 0.114
0.26899999 5.3321905 0.12899999
0.23 5.3339047 0.114
0.26899999 5.3339047 0.12899999
0.23 5.3356199 0.114
0.26899999 5.3356199 0.12899999
0.23999999 5.3373337 0.116
0.25 5.3373337 0.122
0.25999999 5.3373337 0.122
0.23999999 5.3390484 0.116
0.25 5.3390484 0.122
0.25999999 5.3390484 0.122
0.23999999 5.3407631 0.116
0.25 5.3407631 0.122
0.25999999 5.3407631 0.122
0.23999999 5.3424773 0.116
0.25 5.3424773 0.122
0.25999999 5.3424773 0.122
0.23999999 5.344192 0.116
0.25 5.344192 0.122
0.25999999 5.344192 0.122
0.23999999 5.3459067 0.116
0.25 5.3459067 0.122
0.25999999 5.3459067 0.122
0.23999999 5.3476214 0.116
0.25 5.3476214 0.122
0.25999999 5.3476214 0.122
0.23999999 5.3493357 0.116
0.25 5.3493357 0.122
0.25999999 5.3493357 0.122
0.23999999 5.3510504 0.116
0.25 5.3510504 0.122
0.25999999 5.3510504 0.122
0.23999999 5.3527646 0.116
0.25 5.3527646 0.122
0.25999999 5.3527646 0.122
0.23999999 5.3544798 0.116
0.25 5.3544798 0.122
0.25999999 5.3544798 0.122
0.23999999 5.3561935 0.116
0.25 5.3561935 0.122
0.25999999 5.3561935 0.122
0.56900001 2.1843121 0.87900001
0.57599998 2.1843121 0.87900001
0.57499999 2.1843121 0.903
0.58399999 2.1843121 0.89899999
0.56900001 2.1860266 0.87900001
0.57599998 2.1860266 0.87900001
0.57499999 2.1860266 0.903
0.58399999 2.1860266 0.89899999
0.56900001 2.187741 0.87900001
0.57599998 2.187741 0.87900001
0.57499999 2.187741 0.903
0.58399999 2.187741 0.89899999
0.56900001 2.1894557 0.87900001
0.57599998 2.1894557 0.87900001
0.57499999 2.1894557 0.903
0.58399999 2.1894557 0.89899999
0.56900001 2.1911702 0.87900001
0.57599998 2.1911702 0.87900001
0.57499999 2.1911702 0.903
0.58399999 2.1911702 0.89899999
0.56900001 2.1928847 0.87900001
0.57599998 2.1928847 0.87900001
0.57499999 2.1928847 0.903
0.58399999 2.1928847 0.89899999
0.56900001 2.1945992 0.87900001
0.57599998 2.1945992 0.87900001
0.57499999 2.1945992 0.903
0.58399999 2.1945992 0.89899999
0.56900001 2.1963139 0.87900001
0.57599998 2.1963139 0.87900001
0.57499999 2.1963139 0.903
0.58399999 2.1963139 0.89899999
0.56900001 2.1980283 0.87900001
0.57599998 2.1980283 0.87900001
0.57499999 2.1980283 0.903
0.58399999 2.1980283 0.89899999
0.56900001 2.1997428 0.87900001
0.57599998 2.1997428 0.87900001
0.57499999 2.1997428 0.903
0.58399999 2.1997428 0.89899999
0.56900001 2.2014575 0.87900001
0.57599998 2.2014575 0.87900001
0.57499999 2.2014575 0.903
0.58399999 2.2014575 0.89899999
0.56900001 2.2031717 0.87900001
0.57599998 2.2031717 0.87900001
0.57499999 2.2031717 0.903
0.58399999 2.2031717 0.89899999
0.56599998 2.2048864 0.90600002
0.58099997 2.2048864 0.88800001
0.56599998 2.2066009 0.90600002
0.58099997 2.2066009 0.88800001
0.56599998 2.2083156 0.90600002
0.58099997 2.2083156 0.88800001
0.56599998 2.2100301 0.90600002
0.58099997 2.2100301 0.88800001
0.56599998 2.2117445 0.90600002
0.58099997 2.2117445 0.88800001
0.56599998 2.213459 0.90600002
0.58099997 2.213459 0.88800001
0.56599998 2.2151737 0.90600002
0.58099997 2.2151737 0.88800001
0.56599998 2.2168882 0.90600002
0.58099997 2.2168882 0.88800001
0.56599998 2.2186027 0.90600002
0.58099997 2.2186027 0.88800001
0.56599998 2.2203174 0.90600002
0.58099997 2.2203174 0.88800001
0.56599998 2.2220316 0.90600002
0.58099997 2.2220316 0.88800001
0.56599998 2.2237463 0.90600002
0.58099997 2.2237463 0.88800001
0.50199997 0.8538363 1.076
0.50199997 0.85555083 1.076
0.50199997 0.85726529 1.076
0.50199997 0.85897982 1.076
0.50199997 0.86069441 1.076
0.50199997 0.86240888 1.076
0.50199997 0.86412346 1.076
0.50199997 0.86583799 1.076
0.50199997 0.86755252 1.076
0.50199997 0.86926711 1.076
0.50199997 0.87098157 1.076
0.50199997 0.87269604 1.076
0.5 0.87441063 1.08
0.50400001 0.87441063 1.086
0.50800002 0.87441063 1.094
0.51200002 0.87441063 1.101
0.51700002 0.87441063 1.103
0.5 0.87612516 1.08
0.50400001 0.87612516 1.086
0.50800002 0.87612516 1.094
0.51200002 0.87612516 1.101
0.51700002 0.87612516 1.103
0.5 0.87783968 1.08
0.50400001 0.87783968 1.086
0.50800002 0.87783968 1.094
0.51200002 0.87783968 1.101
0.51700002 0.87783968 1.103
0.5 0.87955427 1.08
0.50400001 0.87955427 1.086
0.50800002 0.87955427 1.094
0.51200002 0.87955427 1.101
0.51700002 0.87955427 1.103
0.5 0.88126886 1.08
0.50400001 0.88126886 1.086
0.50800002 0.88126886 1.094
0.51200002 0.88126886 1.101
0.51700002 0.88126886 1.103
0.5 0.88298333 1.08
0.50400001 0.88298333 1.086
0.50800002 0.88298333 1.094
0.51200002 0.88298333 1.101
0.51700002 0.88298333 1.103
0.5 0.88469785 1.08
0.50400001 0.88469785 1.086
0.50800002 0.88469785 1.094
0.51200002 0.88469785 1.101
0.51700002 0.88469785 1.103
0.5 0.88641232 1.08
0.50400001 0.88641232 1.086
0.50800002 0.88641232 1.094
0.51200002 0.88641232 1.101
0.51700002 0.88641232 1.103
0.5 0.88812685 1.08
0.50400001 0.88812685 1.086
0.50800002 0.88812685 1.094
0.51200002 0.88812685 1.101
0.51700002 0.88812685 1.103
0.5 0.88984144 1.08
0.50400001 0.88984144 1.086
0.50800002 0.88984144 1.094
0.51200002 0.88984144 1.101
0.51700002 0.88984144 1.103
0.5 0.89155591 1.08
0.50400001 0.89155591 1.086
0.50800002 0.89155591 1.094
0.51200002 0.89155591 1.101
0.51700002 0.89155591 1.103
0.5 0.89327049 1.08
0.50400001 0.89327049 1.086
0.50800002 0.89327049 1.094
0.51200002 0.89327049 1.101
0.51700002 0.89327049 1.103
0.67000002 3.9245605 1.165
0.68199998 3.9245605 1.1569999
0.67000002 3.9262753 1.165
0.68199998 3.9262753 1.1569999
0.67000002 3.92799 1.165
0.68199998 3.92799 1.1569999
0.67000002 3.9297044 1.165
0.68199998 3.9297044 1.1569999
0.67000002 3.9314189 1.165
0.68199998 3.9314189 1.1569999
0.67000002 3.9331334 1.165
0.68199998 3.9331334 1.1569999
0.67000002 3.9348483 1.165
0.68199998 3.9348483 1.1569999
0.67000002 3.9365623 1.165
0.68199998 3.9365623 1.1569999
0.67000002 3.9382768 1.165
0.68199998 3.9382768 1.1569999
0.67000002 3.9399915 1.165
0.68199998 3.9399915 1.1569999
0.67000002 3.9417062 1.165
0.68199998 3.9417062 1.1569999
0.67000002 3.9434204 1.165
0.68199998 3.9434204 1.1569999
0.65799999 3.9451351 1.1619999
0.66000003 3.9451351 1.1720001
0.66799998 3.9451351 1.17
0.68099999 3.9451351 1.159
0.65799999 3.9468498 1.1619999
0.66000003 3.9468498 1.1720001
0.66799998 3.9468498 1.17
0.68099999 3.9468498 1.159
0.65799999 3.9485641 1.1619999
0.66000003 3.9485641 1.1720001
0.66799998 3.9485641 1.17
0.68099999 3.9485641 1.159
0.65799999 3.9502788 1.1619999
0.66000003 3.9502788 1.1720001
0.66799998 3.9502788 1.17
0.68099999 3.9502788 1.159
0.65799999 3.9519932 1.1619999
0.66000003 3.9519932 1.1720001
0.66799998 3.9519932 1.17
0.68099999 3.9519932 1.159
0.65799999 3.9537077 1.1619999
0.66000003 3.9537077 1.1720001
0.66799998 3.9537077 1.17
0.68099999 3.9537077 1.159
0.65799999 3.9554222 1.1619999
0.66000003 3.9554222 1.1720001
0.66799998 3.9554222 1.17
0.68099999 3.9554222 1.159
0.65799999 3.9571366 1.1619999
0.66000003 3.9571366 1.1720001
0.66799998 3.9571366 1.17
0.68099999 3.9571366 1.159
0.65799999 3.9588513 1.1619999
0.66000003 3.9588513 1.1720001
0.66799998 3.9588513 1.17
0.68099999 3.9588513 1.159
0.65799999 3.960566 1.1619999
0.66000003 3.960566 1.1720001
0.66799998 3.960566 1.17
0.68099999 3.960566 1.159
0.65799999 3.9622803 1.1619999
0.66000003 3.9622803 1.1720001
0.66799998 3.9622803 1.17
0.68099999 3.9622803 1.159
0.65799999 3.963995 1.1619999
0.66000003 3.963995 1.1720001
0.66799998 3.963995 1.17
0.68099999 3.963995 1.159
0.19400001 3.3347621 0.764
0.2 3.3347621 0.76899999
0.20900001 3.3347621 0.75700003
0.19400001 3.3364768 0.764
0.2 3.3364768 0.76899999
0.20900001 3.3364768 0.75700003
0.19400001 3.338191 0.764
0.2 3.338191 0.76899999
0.20900001 3.338191 0.75700003
0.19400001 3.3399057 0.764
0.2 3.3399057 0.76899999
0.20900001 3.3399057 0.75700003
0.19400001 3.3416204 0.764
0.2 3.3416204 0.76899999
0.20900001 3.3416204 0.75700003
0.19400001 3.3433349 0.764
0.2 3.3433349 0.76899999
0.20900001 3.3433349 0.75700003
0.19400001 3.3450494 0.764
0.2 3.3450494 0.76899999
0.20900001 3.3450494 0.75700003
0.19400001 3.3467638 0.764
0.2 3.3467638 0.76899999
0.20900001 3.3467638 0.75700003
0.19400001 3.3484788 0.764
0.2 3.3484788 0.76899999
0.20900001 3.3484788 0.75700003
0.19400001 3.3501928 0.764
0.2 3.3501928 0.76899999
0.20900001 3.3501928 0.75700003
0.19400001 3.3519073 0.764
0.2 3.3519073 0.76899999
0.20900001 3.3519073 0.75700003
0.193 3.353622 0.76599997
0.2 3.353622 0.77200001
0.208 3.353622 0.76200002
0.193 3.3553367 0.76599997
0.2 3.3553367 0.77200001
0.208 3.3553367 0.76200002
0.193 3.3570509 0.76599997
0.2 3.3570509 0.77200001
0.208 3.3570509 0.76200002
0.193 3.3587656 0.76599997
0.2 3.3587656 0.77200001
0.208 3.3587656 0.76200002
0.193 3.3604803 0.76599997
0.2 3.3604803 0.77200001
0.208 3.3604803 0.76200002
0.193 3.3621945 0.76599997
0.2 3.3621945 0.77200001
0.208 3.3621945 0.76200002
0.193 3.3639092 0.76599997
0.2 3.3639092 0.77200001
0.208 3.3639092 0.76200002
0.193 3.3656237 0.76599997
0.2 3.3656237 0.77200001
0.208 3.3656237 0.76200002
0.193 3.3673382 0.76599997
0.2 3.3673382 0.77200001
0.208 3.3673382 0.76200002
0.193 3.3690526 0.76599997
0.2 3.3690526 0.77200001
0.208 3.3690526 0.76200002
0.193 3.3707671 0.76599997
0.2 3.3707671 0.77200001
0.208 3.3707671 0.76200002
0.193 3.3724818 0.76599997
0.2 3.3724818 0.77200001
0.208 3.3724818 0.76200002
0.193 3.3741965 0.76599997
0.2 3.3741965 0.77200001
0.208 3.3741965 0.76200002
0.60699999 5.3904843 1.234
0.60699999 5.3921995 1.234
0.60699999 5.3939133 1.234
0.60699999 5.395628 1.234
0.60699999 5.3973427 1.234
0.60699999 5.3990569 1.234
0.60699999 5.4007716 1.234
0.60699999 5.4024858 1.234
0.60699999 5.404201 1.234
0.60699999 5.4059153 1.234
0.60699999 5.4076295 1.234
0.60699999 5.4093442 1.234
0.59399998 5.4110594 1.2460001
0.602 5.4110594 1.244
0.60500002 5.4110594 1.25
0.61199999 5.4110594 1.249
0.61799997 5.4110594 1.25
0.59399998 5.4127731 1.2460001
0.602 5.4127731 1.244
0.60500002 5.4127731 1.25
0.61199999 5.4127731 1.249
0.61799997 5.4127731 1.25
0.59399998 5.4144878 1.2460001
0.602 5.4144878 1.244
0.60500002 5.4144878 1.25
0.61199999 5.4144878 1.249
0.61799997 5.4144878 1.25
0.59399998 5.4162025 1.2460001
0.602 5.4162025 1.244
0.60500002 5.4162025 1.25
0.61199999 5.4162025 1.249
0.61799997 5.4162025 1.25
0.59399998 5.4179168 1.2460001
0.602 5.4179168 1.244
0.60500002 5.4179168 1.25
0.61199999 5.4179168 1.249
0.61799997 5.4179168 1.25
0.59399998 5.4196315 1.2460001
0.602 5.4196315 1.244
0.60500002 5.4196315 1.25
0.61199999 5.4196315 1.249
0.61799997 5.4196315 1.25
0.59399998 5.4213457 1.2460001
0.602 5.4213457 1.244
0.60500002 5.4213457 1.25
0.61199999 5.4213457 1.249
0.61799997 5.4213457 1.25
0.59399998 5.4230609 1.2460001
0.602 5.4230609 1.244
0.60500002 5.4230609 1.25
0.61199999 5.4230609 1.249
0.61799997 5.4230609 1.25
0.59399998 5.4247751 1.2460001
0.602 5.4247751 1.244
0.60500002 5.4247751 1.25
0.61199999 5.4247751 1.249
0.61799997 5.4247751 1.25
0.59399998 5.4264894 1.2460001
0.602 5.4264894 1.244
0.60500002 5.4264894 1.25
0.61199999 5.4264894 1.249
0.61799997 5.4264894 1.25
0.59399998 5.4282041 1.2460001
0.602 5.4282041 1.244
0.60500002 5.4282041 1.25
0.61199999 5.4282041 1.249
0.61799997 5.4282041 1.25
0.59399998 5.4299192 1.2460001
0.602 5.4299192 1.244
0.60500002 5.4299192 1.25
0.61199999 5.4299192 1.249
0.61799997 5.4299192 1.25
0.84799999 2.5855124 0.838
0.85299999 2.5855124 0.84500003
0.85600001 2.5855124 0.85600001
0.84799999 2.5872269 0.838
0.85299999 2.5872269 0.84500003
0.85600001 2.5872269 0.85600001
0.84799999 2.5889416 0.838
0.85299999 2.5889416 0.84500003
0.85600001 2.5889416 0.85600001
0.84799999 2.5906558 0.838
0.85299999 2.5906558 0.84500003
0.85600001 2.5906558 0.85600001
0.84799999 2.5923703 0.838
0.85299999 2.5923703 0.84500003
0.85600001 2.5923703 0.85600001
0.84799999 2.5940847 0.838
0.85299999 2.5940847 0.84500003
0.85600001 2.5940847 0.85600001
0.84799999 2.5957994 0.838
0.85299999 2.5957994 0.84500003
0.85600001 2.5957994 0.85600001
0.84799999 2.5975139 0.838
0.85299999 2.5975139 0.84500003
0.85600001 2.5975139 0.85600001
0.84799999 2.5992284 0.838
0.85299999 2.5992284 0.84500003
0.85600001 2.5992284 0.85600001
0.84799999 2.6009431 0.838
0.85299999 2.6009431 0.84500003
0.85600001 2.6009431 0.85600001
0.84799999 2.6026576 0.838
0.85299999 2.6026576 0.84500003
0.85600001 2.6026576 0.85600001
0.84600002 2.6043723 0.84200001
0.85000002 2.6043723 0.85000002
0.85399997 2.6043723 0.85900003
0.84600002 2.6060867 0.84200001
0.85000002 2.6060867 0.85000002
0.85399997 2.6060867 0.85900003
0.84600002 2.6078014 0.84200001
0.85000002 2.6078014 0.85000002
0.85399997 2.6078014 0.85900003
0.84600002 2.6095157 0.84200001
0.85000002 2.6095157 0.85000002
0.85399997 2.6095157 0.85900003
0.84600002 2.6112301 0.84200001
0.85000002 2.6112301 0.85000002
0.85399997 2.6112301 0.85900003
0.84600002 2.6129446 0.84200001
0.85000002 2.6129446 0.85000002
0.85399997 2.6129446 0.85900003
0.84600002 2.6146593 0.84200001
0.85000002 2.6146593 0.85000002
0.85399997 2.6146593 0.85900003
0.84600002 2.6163738 0.84200001
0.85000002 2.6163738 0.85000002
0.85399997 2.6163738 0.85900003
0.84600002 2.6180882 0.84200001
0.85000002 2.6180882 0.85000002
0.85399997 2.6180882 0.85900003
0.84600002 2.619803 0.84200001
0.85000002 2.619803 0.85000002
0.85399997 2.619803 0.85900003
0.84600002 2.6215174 0.84200001
0.85000002 2.6215174 0.85000002
0.85399997 2.6215174 0.85900003
0.84600002 2.6232321 0.84200001
0.85000002 2.6232321 0.85000002
0.85399997 2.6232321 0.85900003
0.84600002 2.6249464 0.84200001
0.85000002 2.6249464 0.85000002
0.85399997 2.6249464 0.85900003
0.29300001 1.8894128 1.5599999
0.29699999 1.8894128 1.562
0.29499999 1.8894128 1.577
0.301 1.8894128 1.573
0.303 1.8894128 1.5779999
0.31099999 1.8894128 1.569
0.29300001 1.8911273 1.5599999
0.29699999 1.8911273 1.562
0.29499999 1.8911273 1.577
0.301 1.8911273 1.573
0.303 1.8911273 1.5779999
0.31099999 1.8911273 1.569
0.29300001 1.8928418 1.5599999
0.29699999 1.8928418 1.562
0.29499999 1.8928418 1.577
0.301 1.8928418 1.573
0.303 1.8928418 1.5779999
0.31099999 1.8928418 1.569
0.29300001 1.8945563 1.5599999
0.29699999 1.8945563 1.562
0.29499999 1.8945563 1.577
0.301 1.8945563 1.573
0.303 1.8945563 1.5779999
0.31099999 1.8945563 1.569
0.29300001 1.896271 1.5599999
0.29699999 1.896271 1.562
0.29499999 1.896271 1.577
0.301 1.896271 1.573
0.303 1.896271 1.5779999
0.31099999 1.896271 1.569
0.29300001 1.8979855 1.5599999
0.29699999 1.8979855 1.562
0.29499999 1.8979855 1.577
0.301 1.8979855 1.573
0.303 1.8979855 1.5779999
0.31099999 1.8979855 1.569
0.29300001 1.8996999 1.5599999
0.29699999 1.8996999 1.562
0.29499999 1.8996999 1.577
0.301 1.8996999 1.573
0.303 1.8996999 1.5779999
0.31099999 1.8996999 1.569
0.29300001 1.9014144 1.5599999
0.29699999 1.9014144 1.562
0.29499999 1.9014144 1.577
0.301 1.9014144 1.573
0.303 1.9014144 1.5779999
0.31099999 1.9014144 1.569
0.29300001 1.9031291 1.5599999
0.29699999 1.9031291 1.562
0.29499999 1.9031291 1.577
0.301 1.9031291 1.573
0.303 1.9031291 1.5779999
0.31099999 1.9031291 1.569
0.29300001 1.9048436 1.5599999
0.29699999 1.9048436 1.562
0.29499999 1.9048436 1.577
0.301 1.9048436 1.573
0.303 1.9048436 1.5779999
0.31099999 1.9048436 1.569
0.29300001 1.9065582 1.5599999
0.29699999 1.9065582 1.562
0.29499999 1.9065582 1.577
0.301 1.9065582 1.573
0.303 1.9065582 1.5779999
0.31099999 1.9065582 1.569
0.29300001 1.9082726 1.5599999
0.29699999 1.9082726 1.562
0.29499999 1.9082726 1.577
0.301 1.9082726 1.573
0.303 1.9082726 1.5779999
0.31099999 1.9082726 1.569
0.498 2.9404202 1.307
0.5 2.9404202 1.316
0.50400001 2.9404202 1.319
0.50599998 2.9404202 1.327
0.51099998 2.9404202 1.33
0.52200001 2.9404202 1.33
0.498 2.9421346 1.307
0.5 2.9421346 1.316
0.50400001 2.9421346 1.319
0.50599998 2.9421346 1.327
0.51099998 2.9421346 1.33
0.52200001 2.9421346 1.33
0.498 2.9438491 1.307
0.5 2.9438491 1.316
0.50400001 2.9438491 1.319
0.50599998 2.9438491 1.327
0.51099998 2.9438491 1.33
0.52200001 2.9438491 1.33
0.498 2.9455636 1.307
0.5 2.9455636 1.316
0.50400001 2.9455636 1.319
0.50599998 2.9455636 1.327
0.51099998 2.9455636 1.33
0.52200001 2.9455636 1.33
0.498 2.9472783 1.307
0.5 2.9472783 1.316
0.50400001 2.9472783 1.319
0.50599998 2.9472783 1.327
0.51099998 2.9472783 1.33
0.52200001 2.9472783 1.33
0.498 2.9489927 1.307
0.5 2.9489927 1.316
0.50400001 2.9489927 1.319
0.50599998 2.9489927 1.327
0.51099998 2.9489927 1.33
0.52200001 2.9489927 1.33
0.498 2.9507072 1.307
0.5 2.9507072 1.316
0.50400001 2.9507072 1.319
0.50599998 2.9507072 1.327
0.51099998 2.9507072 1.33
0.52200001 2.9507072 1.33
0.498 2.9524217 1.307
0.5 2.9524217 1.316
0.50400001 2.9524217 1.319
0.50599998 2.9524217 1.327
0.51099998 2.9524217 1.33
0.52200001 2.9524217 1.33
0.498 2.9541364 1.307
0.5 2.9541364 1.316
0.50400001 2.9541364 1.319
0.50599998 2.9541364 1.327
0.51099998 2.9541364 1.33
0.52200001 2.9541364 1.33
0.498 2.9558508 1.307
0.5 2.9558508 1.316
0.50400001 2.9558508 1.319
0.50599998 2.9558508 1.327
0.51099998 2.9558508 1.33
0.52200001 2.9558508 1.33
0.498 2.9575655 1.307
0.5 2.9575655 1.316
0.50400001 2.9575655 1.319
0.50599998 2.9575655 1.327
0.51099998 2.9575655 1.33
0.52200001 2.9575655 1.33
0.498 2.95928 1.307
0.5 2.95928 1.316
0.50400001 2.95928 1.319
0.50599998 2.95928 1.327
0.51099998 2.95928 1.33
0.52200001 2.95928 1.33
0.46799999 0.98071158 1.041
0.472 0.98071158 1.048
0.48100001 0.98071158 1.043
0.48300001 0.98071158 1.0549999
0.46799999 0.98242611 1.041
0.472 0.98242611 1.048
0.48100001 0.98242611 1.043
0.48300001 0.98242611 1.0549999
0.46799999 0.98414057 1.041
0.472 0.98414057 1.048
0.48100001 0.98414057 1.043
0.48300001 0.98414057 1.0549999
0.46799999 0.9858551 1.041
0.472 0.9858551 1.048
0.48100001 0.9858551 1.043
0.48300001 0.9858551 1.0549999
0.46799999 0.98756969 1.041
0.472 0.98756969 1.048
0.48100001 0.98756969 1.043
0.48300001 0.98756969 1.0549999
0.46799999 0.98928416 1.041
0.472 0.98928416 1.048
0.48100001 0.98928416 1.043
0.48300001 0.98928416 1.0549999
0.46799999 0.99099874 1.041
0.472 0.99099874 1.048
0.48100001 0.99099874 1.043
0.48300001 0.99099874 1.0549999
0.46799999 0.99271327 1.041
0.472 0.99271327 1.048
0.48100001 0.99271327 1.043
0.48300001 0.99271327 1.0549999
0.46799999 0.9944278 1.041
0.472 0.9944278 1.048
0.48100001 0.9944278 1.043
0.48300001 0.9944278 1.0549999
0.463 0.99614227 1.0549999
0.46799999 0.99614227 1.061
0.477 0.99614227 1.054
0.463 0.99785686 1.0549999
0.46799999 0.99785686 1.061
0.477 0.99785686 1.054
0.463 0.99957132 1.0549999
0.46799999 0.99957132 1.061
0.477 0.99957132 1.054
0.463 1.0012859 1.0549999
0.46799999 1.0012859 1.061
0.477 1.0012859 1.054
0.463 1.0030005 1.0549999
0.46799999 1.0030005 1.061
0.477 1.0030005 1.054
0.463 1.004715 1.0549999
0.46799999 1.004715 1.061
0.477 1.004715 1.054
0.463 1.0064296 1.0549999
0.46799999 1.0064296 1.061
0.477 1.0064296 1.054
0.463 1.0081441 1.0549999
0.46799999 1.0081441 1.061
0.477 1.0081441 1.054
0.463 1.0098586 1.0549999
0.46799999 1.0098586 1.061
0.477 1.0098586 1.054
0.463 1.0115731 1.0549999
0.46799999 1.0115731 1.061
0.477 1.0115731 1.054
0.463 1.0132875 1.0549999
0.46799999 1.0132875 1.061
0.477 1.0132875 1.054
0.463 1.0150021 1.0549999
0.46799999 1.0150021 1.061
0.477 1.0150021 1.054
0.1 2.5649378 0.76200002
0.108 2.5649378 0.755
0.115 2.5649378 0.75999999
0.122 2.5649378 0.75999999
0.12899999 2.5649378 0.75800002
0.1 2.5666525 0.76200002
0.108 2.5666525 0.755
0.115 2.5666525 0.75999999
0.122 2.5666525 0.75999999
0.12899999 2.5666525 0.75800002
0.1 2.568367 0.76200002
0.108 2.568367 0.755
0.115 2.568367 0.75999999
0.122 2.568367 0.75999999
0.12899999 2.568367 0.75800002
0.1 2.5700817 0.76200002
0.108 2.5700817 0.755
0.115 2.5700817 0.75999999
0.122 2.5700817 0.75999999
0.12899999 2.5700817 0.75800002
0.1 2.5717959 0.76200002
0.108 2.5717959 0.755
0.115 2.5717959 0.75999999
0.122 2.5717959 0.75999999
0.12899999 2.5717959 0.75800002
0.1 2.5735104 0.76200002
0.108 2.5735104 0.755
0.115 2.5735104 0.75999999
0.122 2.5735104 0.75999999
0.12899999 2.5735104 0.75800002
0.1 2.5752251 0.76200002
0.108 2.5752251 0.755
0.115 2.5752251 0.75999999
0.122 2.5752251 0.75999999
0.12899999 2.5752251 0.75800002
0.1 2.5769396 0.76200002
0.108 2.5769396 0.755
0.115 2.5769396 0.75999999
0.122 2.5769396 0.75999999
0.12899999 2.5769396 0.75800002
0.1 2.5786541 0.76200002
0.108 2.5786541 0.755
0.115 2.5786541 0.75999999
0.122 2.5786541 0.75999999
0.12899999 2.5786541 0.75800002
0.1 2.5803685 0.76200002
0.108 2.5803685 0.755
0.115 2.5803685 0.75999999
0.122 2.5803685 0.75999999
0.12899999 2.5803685 0.75800002
0.1 2.5820832 0.76200002
0.108 2.5820832 0.755
0.115 2.5820832 0.75999999
0.122 2.5820832 0.75999999
0.12899999 2.5820832 0.75800002
0.1 2.5837977 0.76200002
0.108 2.5837977 0.755
0.115 2.5837977 0.75999999
0.122 2.5837977 0.75999999
0.12899999 2.5837977 0.75800002
0.1 2.5855124 0.75999999
0.1 2.5872269 0.75999999
0.1 2.5889416 0.75999999
0.1 2.5906558 0.75999999
0.1 2.5923703 0.75999999
0.1 2.5940847 0.75999999
0.1 2.5957994 0.75999999
0.1 2.5975139 0.75999999
0.1 2.5992284 0.75999999
0.1 2.6009431 0.75999999
0.1 2.6026576 0.75999999
0.396 3.7136736 0.94800001
0.396 3.7153881 0.94800001
0.396 3.7171025 0.94800001
0.396 3.718817 0.94800001
0.396 3.7205319 0.94800001
0.396 3.7222459 0.94800001
0.396 3.7239604 0.94800001
0.396 3.7256751 0.94800001
0.396 3.7273898 0.94800001
0.396 3.729104 0.94800001
0.396 3.7308187 0.94800001
0.396 3.7325335 0.94800001
0.39700001 3.7342479 0.94300002
0.405 3.7342479 0.94099998
0.39700001 3.7359624 0.94300002
0.405 3.7359624 0.94099998
0.39700001 3.7376769 0.94300002
0.405 3.7376769 0.94099998
0.39700001 3.7393918 0.94300002
0.405 3.7393918 0.94099998
0.39700001 3.7411058 0.94300002
0.405 3.7411058 0.94099998
0.39700001 3.7428203 0.94300002
0.405 3.7428203 0.94099998
0.39700001 3.744535 0.94300002
0.405 3.744535 0.94099998
0.39700001 3.7462497 0.94300002
0.405 3.7462497 0.94099998
0.39700001 3.7479639 0.94300002
0.405 3.7479639 0.94099998
0.39700001 3.7496786 0.94300002
0.405 3.7496786 0.94099998
0.39700001 3.7513933 0.94300002
0.405 3.7513933 0.94099998
0.39700001 3.7531075 0.94300002
0.405 3.7531075 0.94099998
0.39700001 3.7548223 0.94300002
0.405 3.7548223 0.94099998
0.403 3.7565367 0.94700003
0.40700001 3.7565367 0.95700002
0.41 3.7565367 0.96899998
0.403 3.7582512 0.94700003
0.40700001 3.7582512 0.95700002
0.41 3.7582512 0.96899998
0.403 3.7599657 0.94700003
0.40700001 3.7599657 0.95700002
0.41 3.7599657 0.96899998
0.403 3.7616801 0.94700003
0.40700001 3.7616801 0.95700002
0.41 3.7616801 0.96899998
0.403 3.7633948 0.94700003
0.40700001 3.7633948 0.95700002
0.41 3.7633948 0.96899998
0.403 3.7651095 0.94700003
0.40700001 3.7651095 0.95700002
0.41 3.7651095 0.96899998
0.403 3.7668238 0.94700003
0.40700001 3.7668238 0.95700002
0.41 3.7668238 0.96899998
0.403 3.7685385 0.94700003
0.40700001 3.7685385 0.95700002
0.41 3.7685385 0.96899998
0.403 3.7702532 0.94700003
0.40700001 3.7702532 0.95700002
0.41 3.7702532 0.96899998
0.403 3.7719674 0.94700003
0.40700001 3.7719674 0.95700002
0.41 3.7719674 0.96899998
0.403 3.7736821 0.94700003
0.40700001 3.7736821 0.95700002
0.41 3.7736821 0.96899998
0.64600003 5.4933567 1.03
0.64899999 5.4933567 1.054
0.65399998 5.4933567 1.058
0.64600003 5.4950705 1.03
0.64899999 5.4950705 1.054
0.65399998 5.4950705 1.058
0.64600003 5.4967852 1.03
0.64899999 5.4967852 1.054
0.65399998 5.4967852 1.058
0.63800001 5.4984999 1.031
0.64399999 5.4984999 1.035
0.64600003 5.4984999 1.045
0.63800001 5.5002141 1.031
0.64399999 5.5002141 1.035
0.64600003 5.5002141 1.045
0.63800001 5.5019288 1.031
0.64399999 5.5019288 1.035
0.64600003 5.5019288 1.045
0.63800001 5.5036435 1.031
0.64399999 5.5036435 1.035
0.64600003 5.5036435 1.045
0.63800001 5.5053582 1.031
0.64399999 5.5053582 1.035
0.64600003 5.5053582 1.045
0.63800001 5.5070724 1.031
0.64399999 5.5070724 1.035
0.64600003 5.5070724 1.045
0.63800001 5.5087872 1.031
0.64399999 5.5087872 1.035
0.64600003 5.5087872 1.045
0.63800001 5.5105014 1.031
0.64399999 5.5105014 1.035
0.64600003 5.5105014 1.045
0.63800001 5.5122166 1.031
0.64399999 5.5122166 1.035
0.64600003 5.5122166 1.045
0.63800001 5.5139303 1.031
0.64399999 5.5139303 1.035
0.64600003 5.5139303 1.045
0.63800001 5.515645 1.031
0.64399999 5.515645 1.035
0.64600003 5.515645 1.045
0.63800001 5.5173597 1.031
0.64399999 5.5173597 1.035
0.64600003 5.5173597 1.045
0.64300001 5.519074 1.052
0.65200001 5.519074 1.048
0.64300001 5.5207887 1.052
0.65200001 5.5207887 1.048
0.64300001 5.5225034 1.052
0.65200001 5.5225034 1.048
0.64300001 5.5242181 1.052
0.65200001 5.5242181 1.048
0.64300001 5.5259323 1.052
0.65200001 5.5259323 1.048
0.64300001 5.527647 1.052
0.65200001 5.527647 1.048
0.64300001 5.5293612 1.052
0.65200001 5.5293612 1.048
0.64300001 5.5310764 1.052
0.65200001 5.5310764 1.048
0.64300001 5.5327902 1.052
0.65200001 5.5327902 1.048
0.64300001 5.5345049 1.052
0.65200001 5.5345049 1.048
0.64300001 5.5362196 1.052
0.65200001 5.5362196 1.048
0.64300001 5.5379338 1.052
0.65200001 5.5379338 1.048
0.64300001 5.5396485 1.052
0.65200001 5.5396485 1.048
0.51999998 1.5430777 0.64300001
0.53100002 1.5430777 0.63499999
0.537 1.5430777 0.64499998
0.542 1.5430777 0.653
0.51999998 1.5447922 0.64300001
0.53100002 1.5447922 0.63499999
0.537 1.5447922 0.64499998
0.542 1.5447922 0.653
0.51999998 1.5465066 0.64300001
0.53100002 1.5465066 0.63499999
0.537 1.5465066 0.64499998
0.542 1.5465066 0.653
0.51999998 1.5482213 0.64300001
0.53100002 1.5482213 0.63499999
0.537 1.5482213 0.64499998
0.542 1.5482213 0.653
0.51999998 1.5499356 0.64300001
0.53100002 1.5499356 0.63499999
0.537 1.5499356 0.64499998
0.542 1.5499356 0.653
0.51999998 1.5516503 0.64499998
0.52700001 1.5516503 0.64899999
0.51999998 1.5533648 0.64499998
0.52700001 1.5533648 0.64899999
0.51999998 1.5550793 0.64499998
0.52700001 1.5550793 0.64899999
0.51999998 1.5567938 0.64499998
0.52700001 1.5567938 0.64899999
0.51999998 1.5585084 0.64499998
0.52700001 1.5585084 0.64899999
0.51999998 1.5602229 0.64499998
0.52700001 1.5602229 0.64899999
0.51999998 1.5619373 0.64499998
0.52700001 1.5619373 0.64899999
0.51999998 1.563652 0.64499998
0.52700001 1.563652 0.64899999
0.51999998 1.5653665 0.64499998
0.52700001 1.5653665 0.64899999
0.51999998 1.5670812 0.64499998
0.52700001 1.5670812 0.64899999
0.51999998 1.5687954 0.64499998
0.52700001 1.5687954 0.64899999
0.51999998 1.5705101 0.64499998
0.52700001 1.5705101 0.64899999
0.51999998 1.5722246 0.64499998
0.52700001 1.5722246 0.64899999
0.52499998 1.5739392 0.65700001
0.52499998 1.5756537 0.65700001
0.52499998 1.5773681 0.65700001
0.52499998 1.5790827 0.65700001
0.52499998 1.5807972 0.65700001
0.52499998 1.5825119 0.65700001
0.52499998 1.5842264 0.65700001
0.52499998 1.5859408 0.65700001
0.52499998 1.5876555 0.65700001
0.52499998 1.58937 0.65700001
0.52499998 1.5910845 0.65700001
0.52499998 1.5927989 0.65700001
0.53299999 1.5945135 0.65700001
0.53299999 1.596228 0.65700001
0.53299999 1.5979426 0.65700001
0.53299999 1.5996571 0.65700001
0.53299999 1.6013715 0.65700001
0.53299999 1.6030862 0.65700001
0.53299999 1.6048007 0.65700001
0.53299999 1.6065154 0.65700001
0.53299999 1.6082296 0.65700001
0.53299999 1.6099443 0.65700001
0.53299999 1.6116588 0.65700001
0.53299999 1.6133734 0.65700001
0.53299999 1.6150879 0.65700001
0.5 5.6733818 0.146
0.509 5.6733818 0.152
0.51999998 5.6733818 0.147
0.53100002 5.6733818 0.146
0.5 5.6750965 0.146
0.509 5.6750965 0.152
0.51999998 5.6750965 0.147
0.53100002 5.6750965 0.146
0.5 5.6768112 0.146
0.509 5.6768112 0.152
0.51999998 5.6768112 0.147
