# .PCD v0.7 - Point Cloud Data file format
VERSION 0.7
FIELDS x y z
SIZE 4 4 4
TYPE F F F
COUNT 1 1 1
WIDTH 1852
HEIGHT 1
VIEWPOINT 0 0 0 1 0 0 0
POINTS 1852
DATA ascii
0.75400001 4.842 0.32699999
0.75400001 4.8449998 0.32699999
0.75400001 4.848 0.32699999
0.75400001 4.8509998 0.32699999
0.75400001 4.8540001 0.32699999
0.75400001 4.8569999 0.32699999
0.75400001 4.8600001 0.32699999
0.75400001 4.8629999 0.32699999
0.75400001 4.8660002 0.32699999
0.75400001 4.869 0.32699999
0.764 4.8720002 0.33000001
0.764 4.875 0.33000001
0.764 4.8779998 0.33000001
0.764 4.881 0.33000001
0.764 4.8839998 0.33000001
1.137 16.889999 0.61500001
1.137 16.893 0.61500001
1.137 16.896 0.61500001
1.1440001 16.899 0.60399997
1.1440001 16.902 0.60399997
1.214 16.902 0.583
1.226 16.902 0.616
1.1440001 16.905001 0.60399997
1.214 16.905001 0.583
1.226 16.905001 0.616
1.1440001 16.908001 0.60399997
1.214 16.908001 0.583
1.226 16.908001 0.616
1.1440001 16.910999 0.60399997
1.214 16.910999 0.583
1.226 16.910999 0.616
1.1440001 16.914 0.60399997
1.214 16.914 0.583
1.226 16.914 0.616
1.1440001 16.917 0.60399997
1.214 16.917 0.583
1.226 16.917 0.616
1.1440001 16.92 0.60399997
1.214 16.92 0.583
1.226 16.92 0.616
1.1440001 16.923 0.60399997
1.214 16.923 0.583
1.226 16.923 0.616
1.1440001 16.926001 0.60399997
1.214 16.926001 0.583
1.226 16.926001 0.616
1.1440001 16.929001 0.60399997
1.214 16.929001 0.583
1.226 16.929001 0.616
1.1440001 16.931999 0.60399997
1.214 16.931999 0.583
1.226 16.931999 0.616
1.122 16.934999 0.58700001
1.207 16.934999 0.61000001
1.122 16.938 0.58700001
1.207 16.938 0.61000001
1.122 16.941 0.58700001
1.207 16.941 0.61000001
1.122 16.944 0.58700001
1.207 16.944 0.61000001
1.122 16.947001 0.58700001
1.207 16.947001 0.61000001
1.122 16.950001 0.58700001
1.207 16.950001 0.61000001
1.122 16.952999 0.58700001
1.207 16.952999 0.61000001
1.122 16.955999 0.58700001
1.207 16.955999 0.61000001
1.207 16.959 0.61000001
1.207 16.962 0.61000001
1.207 16.965 0.61000001
1.207 16.968 0.61000001
1.207 16.971001 0.61000001
1.196 16.974001 0.611
1.243 16.974001 0.60900003
1.196 16.976999 0.611
1.243 16.976999 0.60900003
1.196 16.98 0.611
1.243 16.98 0.60900003
1.196 16.983 0.611
1.243 16.983 0.60900003
1.196 16.986 0.611
1.243 16.986 0.60900003
1.196 16.989 0.611
1.243 16.989 0.60900003
1.196 16.992001 0.611
1.243 16.992001 0.60900003
1.196 16.995001 0.611
1.243 16.995001 0.60900003
1.196 16.997999 0.611
1.243 16.997999 0.60900003
1.196 17.000999 0.611
1.196 17.004 0.611
1.196 17.007 0.611
1.245 17.01 0.55400002
1.245 17.013 0.55400002
1.245 17.016001 0.55400002
1.245 17.018999 0.55400002
1.245 17.021999 0.55400002
1.245 17.025 0.55400002
1.245 17.028 0.55400002
1.245 17.031 0.55400002
1.245 17.034 0.55400002
-1.446 6.4980001 0.315
-1.429 6.4980001 0.32100001
-1.418 6.4980001 0.317
-1.446 6.5009999 0.315
-1.429 6.5009999 0.32100001
-1.418 6.5009999 0.317
-1.446 6.5040002 0.315
-1.429 6.5040002 0.32100001
-1.418 6.5040002 0.317
-1.446 6.507 0.315
-1.429 6.507 0.32100001
-1.418 6.507 0.317
-1.446 6.5100002 0.315
-1.429 6.5100002 0.32100001
-1.418 6.5100002 0.317
-1.446 6.513 0.315
-1.429 6.513 0.32100001
-1.418 6.513 0.317
-1.446 6.5159998 0.315
-1.429 6.5159998 0.32100001
-1.418 6.5159998 0.317
-1.446 6.5190001 0.315
-1.429 6.5190001 0.32100001
-1.418 6.5190001 0.317
-1.446 6.5219998 0.315
-1.429 6.5219998 0.32100001
-1.418 6.5219998 0.317
-1.446 6.5250001 0.315
-1.429 6.5250001 0.32100001
-1.418 6.5250001 0.317
-1.446 6.5279999 0.315
-1.429 6.5279999 0.32100001
-1.418 6.5279999 0.317
-1.446 6.5310001 0.315
-1.429 6.5310001 0.32100001
-1.418 6.5310001 0.317
-1.436 6.5339999 0.33000001
-1.427 6.5339999 0.32300001
-1.423 6.5339999 0.31
-1.411 6.5339999 0.308
-1.436 6.5370002 0.33000001
-1.427 6.5370002 0.32300001
-1.423 6.5370002 0.31
-1.411 6.5370002 0.308
-1.436 6.54 0.33000001
-1.427 6.54 0.32300001
-1.423 6.54 0.31
-1.411 6.54 0.308
-1.436 6.5430002 0.33000001
-1.427 6.5430002 0.32300001
-1.423 6.5430002 0.31
-1.411 6.5430002 0.308
-1.436 6.546 0.33000001
-1.427 6.546 0.32300001
-1.423 6.546 0.31
-1.411 6.546 0.308
-1.436 6.5489998 0.33000001
-1.427 6.5489998 0.32300001
-1.423 6.5489998 0.31
-1.411 6.5489998 0.308
-1.436 6.552 0.33000001
-1.427 6.552 0.32300001
-1.423 6.552 0.31
-1.411 6.552 0.308
-1.436 6.5549998 0.33000001
-1.427 6.5549998 0.32300001
-1.423 6.5549998 0.31
-1.411 6.5549998 0.308
-1.436 6.5580001 0.33000001
-1.427 6.5580001 0.32300001
-1.423 6.5580001 0.31
-1.411 6.5580001 0.308
-1.436 6.5609999 0.33000001
-1.427 6.5609999 0.32300001
-1.423 6.5609999 0.31
-1.411 6.5609999 0.308
-1.436 6.5640001 0.33000001
-1.427 6.5640001 0.32300001
-1.423 6.5640001 0.31
-1.411 6.5640001 0.308
-1.436 6.5669999 0.33000001
-1.427 6.5669999 0.32300001
-1.423 6.5669999 0.31
-1.411 6.5669999 0.308
-1.436 6.5700002 0.33000001
-1.427 6.5700002 0.32300001
-1.423 6.5700002 0.31
-1.411 6.5700002 0.308
-0.486 20.898001 0.78399998
-0.486 20.900999 0.78399998
-0.486 20.903999 0.78399998
-0.486 20.907 0.78399998
-0.486 20.91 0.78399998
-0.48100001 20.913 0.801
-0.48100001 20.916 0.801
-0.463 20.919001 0.884
-0.48100001 20.919001 0.801
-0.463 20.922001 0.884
-0.48100001 20.922001 0.801
-0.463 20.924999 0.884
-0.48100001 20.924999 0.801
-0.463 20.927999 0.884
-0.48100001 20.927999 0.801
-0.463 20.931 0.884
-0.48100001 20.931 0.801
-0.463 20.934 0.884
-0.48100001 20.934 0.801
-0.463 20.937 0.884
-0.48100001 20.937 0.801
-0.463 20.940001 0.884
-0.48100001 20.940001 0.801
-0.463 20.943001 0.884
-0.48100001 20.943001 0.801
-0.463 20.945999 0.884
-0.48100001 20.945999 0.801
-0.463 20.948999 0.884
-0.48100001 20.948999 0.801
-0.495 20.952 0.80599999
-0.48899999 20.952 0.79900002
-0.48199999 20.952 0.79799998
-0.47299999 20.952 0.80299997
-0.495 20.955 0.80599999
-0.48899999 20.955 0.79900002
-0.48199999 20.955 0.79799998
-0.47299999 20.955 0.80299997
-0.495 20.958 0.80599999
-0.48899999 20.958 0.79900002
-0.48199999 20.958 0.79799998
-0.47299999 20.958 0.80299997
-0.495 20.961 0.80599999
-0.48899999 20.961 0.79900002
-0.48199999 20.961 0.79799998
-0.47299999 20.961 0.80299997
-0.495 20.964001 0.80599999
-0.48899999 20.964001 0.79900002
-0.48199999 20.964001 0.79799998
-0.47299999 20.964001 0.80299997
-0.495 20.966999 0.80599999
-0.48899999 20.966999 0.79900002
-0.48199999 20.966999 0.79799998
-0.47299999 20.966999 0.80299997
-0.495 20.969999 0.80599999
-0.48899999 20.969999 0.79900002
-0.48199999 20.969999 0.79799998
-0.47299999 20.969999 0.80299997
-0.477 20.973 0.91100001
-0.45899999 20.973 0.92199999
-0.49599999 20.973 0.77600002
-0.48300001 20.973 0.79500002
-0.472 20.973 0.80500001
-0.477 20.976 0.91100001
-0.49599999 20.976 0.77600002
-0.48300001 20.976 0.79500002
-0.472 20.976 0.80500001
-0.49599999 20.979 0.77600002
-0.48300001 20.979 0.79500002
-0.472 20.979 0.80500001
-0.49599999 20.982 0.77600002
-0.48300001 20.982 0.79500002
-0.472 20.982 0.80500001
-0.49599999 20.985001 0.77600002
-0.48300001 20.985001 0.79500002
-0.472 20.985001 0.80500001
-0.49599999 20.988001 0.77600002
-0.48300001 20.988001 0.79500002
-0.472 20.988001 0.80500001
-0.49599999 20.990999 0.77600002
-0.48300001 20.990999 0.79500002
-0.472 20.990999 0.80500001
-0.49599999 20.993999 0.77600002
-0.48300001 20.993999 0.79500002
-0.472 20.993999 0.80500001
-0.49599999 20.997 0.77600002
-0.48300001 20.997 0.79500002
-0.472 20.997 0.80500001
0.079999998 3.786 0.87300003
0.086000003 3.786 0.89200002
0.090999998 3.786 0.90700001
0.097999997 3.786 0.91000003
0.104 3.786 0.91500002
0.11 3.786 0.91799998
0.117 3.786 0.91900003
0.079999998 3.789 0.87300003
0.086000003 3.789 0.89200002
0.090999998 3.789 0.90700001
0.097999997 3.789 0.91000003
0.104 3.789 0.91500002
0.11 3.789 0.91799998
0.117 3.789 0.91900003
0.079999998 3.7920001 0.87300003
0.086000003 3.7920001 0.89200002
0.090999998 3.7920001 0.90700001
0.097999997 3.7920001 0.91000003
0.104 3.7920001 0.91500002
0.11 3.7920001 0.91799998
0.117 3.7920001 0.91900003
0.079999998 3.7950001 0.87300003
0.086000003 3.7950001 0.89200002
0.090999998 3.7950001 0.90700001
0.097999997 3.7950001 0.91000003
0.104 3.7950001 0.91500002
0.11 3.7950001 0.91799998
0.117 3.7950001 0.91900003
0.079999998 3.7980001 0.87300003
0.086000003 3.7980001 0.89200002
0.090999998 3.7980001 0.90700001
0.097999997 3.7980001 0.91000003
0.104 3.7980001 0.91500002
0.11 3.7980001 0.91799998
0.117 3.7980001 0.91900003
0.079999998 3.8010001 0.87300003
0.086000003 3.8010001 0.89200002
0.090999998 3.8010001 0.90700001
0.097999997 3.8010001 0.91000003
0.104 3.8010001 0.91500002
0.11 3.8010001 0.91799998
0.117 3.8010001 0.91900003
0.079999998 3.8039999 0.87300003
0.086000003 3.8039999 0.89200002
0.090999998 3.8039999 0.90700001
0.097999997 3.8039999 0.91000003
0.104 3.8039999 0.91500002
0.11 3.8039999 0.91799998
0.117 3.8039999 0.91900003
0.079999998 3.8069999 0.87300003
0.086000003 3.8069999 0.89200002
0.090999998 3.8069999 0.90700001
0.097999997 3.8069999 0.91000003
0.104 3.8069999 0.91500002
0.11 3.8069999 0.91799998
0.117 3.8069999 0.91900003
0.079999998 3.8099999 0.87300003
0.086000003 3.8099999 0.89200002
0.090999998 3.8099999 0.90700001
0.097999997 3.8099999 0.91000003
0.104 3.8099999 0.91500002
0.11 3.8099999 0.91799998
0.117 3.8099999 0.91900003
0.079999998 3.813 0.88099998
0.085000001 3.813 0.90799999
0.092 3.813 0.903
0.098999999 3.813 0.89300001
0.104 3.813 0.90600002
0.111 3.813 0.90700001
0.117 3.813 0.90899998
0.123 3.813 0.91399997
0.079999998 3.816 0.88099998
0.085000001 3.816 0.90799999
0.092 3.816 0.903
0.098999999 3.816 0.89300001
0.104 3.816 0.90600002
0.111 3.816 0.90700001
0.117 3.816 0.90899998
0.123 3.816 0.91399997
0.079999998 3.819 0.88099998
0.085000001 3.819 0.90799999
0.092 3.819 0.903
0.098999999 3.819 0.89300001
0.104 3.819 0.90600002
0.111 3.819 0.90700001
0.117 3.819 0.90899998
0.123 3.819 0.91399997
-1.061 12.855 0.31799999
-1.061 12.858 0.31799999
-1.061 12.861 0.31799999
-1.061 12.864 0.31799999
-1.062 12.867 0.315
-1.062 12.87 0.315
-1.062 12.873 0.315
-1.062 12.876 0.315
-1.062 12.879 0.315
-1.062 12.882 0.315
-1.062 12.885 0.315
-1.062 12.888 0.315
-1.062 12.891 0.315
-1.062 12.894 0.315
-1.062 12.897 0.315
-1.062 12.9 0.315
-1.062 12.903 0.315
-1.048 12.906 0.31999999
-1.048 12.909 0.31999999
-1.048 12.912 0.31999999
-1.143 12.915 0.338
-1.048 12.915 0.31999999
-1.143 12.918 0.338
-1.048 12.918 0.31999999
-1.143 12.921 0.338
-1.048 12.921 0.31999999
-1.143 12.924 0.338
-1.048 12.924 0.31999999
-1.143 12.927 0.338
-1.048 12.927 0.31999999
-1.143 12.93 0.338
-1.048 12.93 0.31999999
-1.143 12.933 0.338
-1.048 12.933 0.31999999
-1.143 12.936 0.338
-1.133 12.939 0.35699999
-1.022 12.939 0.32699999
-1.133 12.942 0.35699999
-1.022 12.942 0.32699999
-1.131 12.945 0.36000001
-1.126 12.945 0.34799999
-1.005 12.945 0.34
-1.131 12.948 0.36000001
-1.126 12.948 0.34799999
-1.005 12.948 0.34
-1.131 12.951 0.36000001
-1.126 12.951 0.34799999
-1.005 12.951 0.34
-1.131 12.954 0.36000001
-1.126 12.954 0.34799999
-1.005 12.954 0.34
-1.131 12.957 0.36000001
-1.126 12.957 0.34799999
-1.005 12.957 0.34
-1.131 12.96 0.36000001
-1.126 12.96 0.34799999
-1.005 12.96 0.34
-1.131 12.963 0.36000001
-1.126 12.963 0.34799999
-1.005 12.963 0.34
-1.131 12.966 0.36000001
-1.126 12.966 0.34799999
-1.005 12.966 0.34
-1.131 12.969 0.36000001
-1.126 12.969 0.34799999
-1.005 12.969 0.34
-1.131 12.972 0.36000001
-1.126 12.972 0.34799999
-1.005 12.972 0.34
-1.131 12.975 0.36000001
-1.126 12.975 0.34799999
-1.005 12.975 0.34
-1.131 12.978 0.36000001
-1.126 12.978 0.34799999
-1.005 12.978 0.34
-1.131 12.981 0.36000001
-1.126 12.981 0.34799999
-1.005 12.981 0.34
-1.15 12.984 0.34599999
-1.15 12.987 0.34599999
-1.15 12.99 0.34599999
-1.15 12.993 0.34599999
-1.15 12.996 0.34599999
-1.15 12.999 0.34599999
-1.15 13.002 0.34599999
-1.15 13.005 0.34599999
-1.15 13.008 0.34599999
-1.377 8.7869997 0.359
-1.374 8.79 0.40099999
-1.377 8.79 0.359
-1.374 8.7930002 0.40099999
-1.377 8.7930002 0.359
-1.374 8.7959995 0.40099999
-1.377 8.7959995 0.359
-1.374 8.7989998 0.40099999
-1.377 8.7989998 0.359
-1.374 8.802 0.40099999
-1.377 8.802 0.359
-1.374 8.8050003 0.40099999
-1.419 8.8050003 0.315
-1.377 8.8050003 0.359
-1.374 8.8079996 0.40099999
-1.419 8.8079996 0.315
-1.377 8.8079996 0.359
-1.374 8.8109999 0.40099999
-1.419 8.8109999 0.315
-1.377 8.8109999 0.359
-1.374 8.8140001 0.40099999
-1.419 8.8140001 0.315
-1.377 8.8140001 0.359
-1.374 8.8170004 0.40099999
-1.419 8.8170004 0.315
-1.377 8.8170004 0.359
-1.374 8.8199997 0.40099999
-1.419 8.8199997 0.315
-1.377 8.8199997 0.359
-1.374 8.823 0.40099999
-1.419 8.823 0.315
-1.377 8.823 0.359
-1.444 8.8260002 0.31900001
-1.3940001 8.8260002 0.37200001
-1.381 8.8260002 0.37200001
-1.444 8.8290005 0.31900001
-1.3940001 8.8290005 0.37200001
-1.381 8.8290005 0.37200001
-1.444 8.8319998 0.31900001
-1.3940001 8.8319998 0.37200001
-1.381 8.8319998 0.37200001
-1.444 8.835 0.31900001
-1.3940001 8.835 0.37200001
-1.381 8.835 0.37200001
-1.444 8.8380003 0.31900001
-1.3940001 8.8380003 0.37200001
-1.381 8.8380003 0.37200001
-1.444 8.8409996 0.31900001
-1.3940001 8.8409996 0.37200001
-1.381 8.8409996 0.37200001
-1.3940001 8.8439999 0.37200001
-1.381 8.8439999 0.37200001
-1.3940001 8.8470001 0.37200001
-1.381 8.8470001 0.37200001
-1.3940001 8.8500004 0.37200001
-1.381 8.8500004 0.37200001
-1.3940001 8.8529997 0.37200001
-1.381 8.8529997 0.37200001
-1.3940001 8.8559999 0.37200001
-1.381 8.8559999 0.37200001
-1.3940001 8.8590002 0.37200001
-1.381 8.8590002 0.37200001
-1.434 8.9219999 0.31400001
-1.4299999 8.9219999 0.30000001
-1.434 8.9250002 0.31400001
-1.4299999 8.9250002 0.30000001
-1.434 8.9280005 0.31400001
-1.4299999 8.9280005 0.30000001
-1.434 8.9309998 0.31400001
-1.4299999 8.9309998 0.30000001
-1.434 8.934 0.31400001
-1.4299999 8.934 0.30000001
-1.434 8.9370003 0.31400001
-1.4299999 8.9370003 0.30000001
-1.434 8.9399996 0.31400001
-1.4299999 8.9399996 0.30000001
-1.434 8.9429998 0.31400001
-1.4299999 8.9429998 0.30000001
-1.434 8.9460001 0.31400001
-1.4299999 8.9460001 0.30000001
-1.434 8.9490004 0.31400001
-1.4299999 8.9490004 0.30000001
-1.434 8.9519997 0.31400001
-1.4299999 8.9519997 0.30000001
-1.434 8.9549999 0.31400001
-1.4299999 8.9549999 0.30000001
0.154 3.858 0.54900002
0.164 3.858 0.528
0.171 3.858 0.53399998
0.178 3.858 0.54900002
0.186 3.858 0.54900002
0.154 3.8610001 0.54900002
0.164 3.8610001 0.528
0.171 3.8610001 0.53399998
0.178 3.8610001 0.54900002
0.186 3.8610001 0.54900002
0.154 3.8640001 0.54900002
0.164 3.8640001 0.528
0.171 3.8640001 0.53399998
0.178 3.8640001 0.54900002
0.186 3.8640001 0.54900002
0.154 3.8670001 0.54900002
0.164 3.8670001 0.528
0.171 3.8670001 0.53399998
0.178 3.8670001 0.54900002
0.186 3.8670001 0.54900002
0.154 3.8699999 0.54900002
0.164 3.8699999 0.528
0.171 3.8699999 0.53399998
0.178 3.8699999 0.54900002
0.186 3.8699999 0.54900002
0.154 3.8729999 0.54900002
0.164 3.8729999 0.528
0.171 3.8729999 0.53399998
0.178 3.8729999 0.54900002
0.186 3.8729999 0.54900002
0.154 3.8759999 0.54900002
0.164 3.8759999 0.528
0.171 3.8759999 0.53399998
0.178 3.8759999 0.54900002
0.186 3.8759999 0.54900002
0.154 3.8789999 0.54900002
0.164 3.8789999 0.528
0.171 3.8789999 0.53399998
0.178 3.8789999 0.54900002
0.186 3.8789999 0.54900002
0.154 3.882 0.54900002
0.164 3.882 0.528
0.171 3.882 0.53399998
0.178 3.882 0.54900002
0.186 3.882 0.54900002
0.154 3.885 0.54900002
0.164 3.885 0.528
0.171 3.885 0.53399998
0.178 3.885 0.54900002
0.186 3.885 0.54900002
0.154 3.888 0.54900002
0.164 3.888 0.528
0.171 3.888 0.53399998
0.178 3.888 0.54900002
0.186 3.888 0.54900002
0.154 3.891 0.54900002
0.164 3.891 0.528
0.171 3.891 0.53399998
0.178 3.891 0.54900002
0.186 3.891 0.54900002
0.171 3.8940001 0.54299998
0.182 3.8940001 0.509
0.171 3.8970001 0.54299998
0.182 3.8970001 0.509
0.171 3.9000001 0.54299998
0.182 3.9000001 0.509
0.171 3.9030001 0.54299998
0.182 3.9030001 0.509
0.171 3.9059999 0.54299998
0.182 3.9059999 0.509
0.171 3.9089999 0.54299998
0.182 3.9089999 0.509
0.171 3.9119999 0.54299998
0.182 3.9119999 0.509
0.171 3.915 0.54299998
0.182 3.915 0.509
0.171 3.918 0.54299998
0.182 3.918 0.509
0.171 3.921 0.54299998
0.182 3.921 0.509
0.171 3.924 0.54299998
0.182 3.924 0.509
0.171 3.927 0.54299998
0.182 3.927 0.509
0.171 3.9300001 0.54299998
0.182 3.9300001 0.509
0 16.722 0.79400003
0.014 16.722 0.78299999
0 16.725 0.79400003
0.014 16.725 0.78299999
0 16.728001 0.79400003
0.014 16.728001 0.78299999
0 16.731001 0.79400003
0.014 16.731001 0.78299999
0 16.733999 0.79400003
0.014 16.733999 0.78299999
0 16.737 0.79400003
0.014 16.737 0.78299999
0 16.74 0.79400003
0.014 16.74 0.78299999
0 16.743 0.79400003
0.014 16.743 0.78299999
0 16.746 0.79400003
0.014 16.746 0.78299999
0 16.749001 0.79400003
0.014 16.749001 0.78299999
0 16.752001 0.79400003
0.014 16.752001 0.78299999
0 16.754999 0.79400003
0.014 16.754999 0.78299999
-0.015 16.757999 0.685
-0.0070000002 16.757999 0.76599997
0 16.757999 0.68900001
0.0070000002 16.757999 0.77600002
-0.015 16.761 0.685
-0.0070000002 16.761 0.76599997
0 16.761 0.68900001
0.0070000002 16.761 0.77600002
-0.015 16.764 0.685
-0.0070000002 16.764 0.76599997
0 16.764 0.68900001
0.0070000002 16.764 0.77600002
-0.015 16.767 0.685
-0.0070000002 16.767 0.76599997
0 16.767 0.68900001
0.0070000002 16.767 0.77600002
-0.015 16.77 0.685
-0.0070000002 16.77 0.76599997
0 16.77 0.68900001
0.0070000002 16.77 0.77600002
-0.015 16.773001 0.685
-0.0070000002 16.773001 0.76599997
0 16.773001 0.68900001
0.0070000002 16.773001 0.77600002
-0.015 16.775999 0.685
-0.0070000002 16.775999 0.76599997
0 16.775999 0.68900001
0.0070000002 16.775999 0.77600002
-0.015 16.778999 0.685
-0.0070000002 16.778999 0.76599997
0 16.778999 0.68900001
0.0070000002 16.778999 0.77600002
-0.015 16.782 0.685
-0.0070000002 16.782 0.76599997
0 16.782 0.68900001
0.0070000002 16.782 0.77600002
-0.015 16.785 0.685
-0.0070000002 16.785 0.76599997
0 16.785 0.68900001
0.0070000002 16.785 0.77600002
-0.015 16.788 0.685
-0.0070000002 16.788 0.76599997
0 16.788 0.68900001
0.0070000002 16.788 0.77600002
-0.015 16.791 0.685
-0.0070000002 16.791 0.76599997
0 16.791 0.68900001
0.0070000002 16.791 0.77600002
-0.015 16.794001 0.69300002
0.014 16.794001 0.80400002
-0.015 16.797001 0.69300002
0.014 16.797001 0.80400002
-0.015 16.799999 0.69300002
0.014 16.799999 0.80400002
-0.015 16.802999 0.69300002
0.014 16.802999 0.80400002
-0.015 16.806 0.69300002
0.014 16.806 0.80400002
-0.015 16.809 0.69300002
0.014 16.809 0.80400002
-0.015 16.812 0.69300002
-1.33 3.6600001 0.33199999
-1.33 3.6630001 0.33199999
-1.33 3.6659999 0.33199999
-1.33 3.6689999 0.33199999
-1.33 3.6719999 0.33199999
-1.33 3.675 0.33199999
-1.33 3.678 0.33199999
-1.335 3.681 0.493
-1.3329999 3.681 0.47799999
-1.347 3.681 0.32499999
-1.3049999 3.681 0.37099999
-1.298 3.681 0.36300001
-1.335 3.684 0.493
-1.3329999 3.684 0.47799999
-1.347 3.684 0.32499999
-1.3049999 3.684 0.37099999
-1.298 3.684 0.36300001
-1.335 3.687 0.493
-1.3329999 3.687 0.47799999
-1.347 3.687 0.32499999
-1.3049999 3.687 0.37099999
-1.298 3.687 0.36300001
-1.335 3.6900001 0.493
-1.3329999 3.6900001 0.47799999
-1.347 3.6900001 0.32499999
-1.3049999 3.6900001 0.37099999
-1.298 3.6900001 0.36300001
-1.335 3.6930001 0.493
-1.3329999 3.6930001 0.47799999
-1.347 3.6930001 0.32499999
-1.3049999 3.6930001 0.37099999
-1.298 3.6930001 0.36300001
-1.335 3.6960001 0.493
-1.3329999 3.6960001 0.47799999
-1.347 3.6960001 0.32499999
-1.3049999 3.6960001 0.37099999
-1.298 3.6960001 0.36300001
-1.335 3.6989999 0.493
-1.3329999 3.6989999 0.47799999
-1.347 3.6989999 0.32499999
-1.3049999 3.6989999 0.37099999
-1.298 3.6989999 0.36300001
-1.335 3.7019999 0.493
-1.3329999 3.7019999 0.47799999
-1.3049999 3.7019999 0.37099999
-1.298 3.7019999 0.36300001
-1.335 3.7049999 0.493
-1.3329999 3.7049999 0.47799999
-1.3049999 3.7049999 0.37099999
-1.298 3.7049999 0.36300001
-1.335 3.7079999 0.493
-1.3329999 3.7079999 0.47799999
-1.3049999 3.7079999 0.37099999
-1.298 3.7079999 0.36300001
-1.335 3.711 0.493
-1.3329999 3.711 0.47799999
-1.3049999 3.711 0.37099999
-1.298 3.711 0.36300001
-1.335 3.714 0.493
-1.3329999 3.714 0.47799999
-1.3049999 3.714 0.37099999
-1.298 3.714 0.36300001
-1.335 3.717 0.493
-1.337 3.717 0.454
-1.335 3.72 0.493
-1.337 3.72 0.454
-1.335 3.723 0.493
-1.337 3.723 0.454
-1.335 3.7260001 0.493
-1.337 3.7260001 0.454
-1.335 3.7290001 0.493
-1.337 3.7290001 0.454
-1.335 3.7320001 0.493
-1.337 3.7320001 0.454
-1.335 3.7349999 0.493
-1.337 3.7349999 0.454
-1.335 3.7379999 0.493
-1.337 3.7379999 0.454
-1.335 3.7409999 0.493
-1.337 3.7409999 0.454
-1.335 3.744 0.493
-1.337 3.744 0.454
-1.335 3.747 0.493
-1.337 3.747 0.454
0.86000001 4.2090001 0.61799997
0.86000001 4.2119999 0.61799997
0.86000001 4.2150002 0.61799997
0.86000001 4.2179999 0.61799997
0.86000001 4.2210002 0.61799997
0.86000001 4.224 0.61799997
0.86000001 4.2270002 0.61799997
0.86000001 4.23 0.61799997
0.86000001 4.2329998 0.61799997
0.86000001 4.2360001 0.61799997
0.829 4.2389998 0.662
0.86000001 4.2389998 0.61799997
0.829 4.2420001 0.662
0.86000001 4.2420001 0.61799997
0.86000001 4.2449999 0.61799997
0.847 4.2480001 0.60399997
0.84799999 4.2480001 0.62300003
0.86900002 4.2480001 0.59899998
0.87599999 4.2480001 0.60299999
0.889 4.2480001 0.59600002
0.847 4.2509999 0.60399997
0.84799999 4.2509999 0.62300003
0.86900002 4.2509999 0.59899998
0.87599999 4.2509999 0.60299999
0.889 4.2509999 0.59600002
0.847 4.2540002 0.60399997
0.84799999 4.2540002 0.62300003
0.86900002 4.2540002 0.59899998
0.87599999 4.2540002 0.60299999
0.889 4.2540002 0.59600002
0.847 4.257 0.60399997
0.84799999 4.257 0.62300003
0.86900002 4.257 0.59899998
0.87599999 4.257 0.60299999
0.889 4.257 0.59600002
0.847 4.2600002 0.60399997
0.84799999 4.2600002 0.62300003
0.86900002 4.2600002 0.59899998
0.87599999 4.2600002 0.60299999
0.889 4.2600002 0.59600002
0.847 4.263 0.60399997
0.84799999 4.263 0.62300003
0.86900002 4.263 0.59899998
0.87599999 4.263 0.60299999
0.889 4.263 0.59600002
0.847 4.2659998 0.60399997
0.84799999 4.2659998 0.62300003
0.86900002 4.2659998 0.59899998
0.87599999 4.2659998 0.60299999
0.889 4.2659998 0.59600002
0.847 4.2690001 0.60399997
0.84799999 4.2690001 0.62300003
0.86900002 4.2690001 0.59899998
0.87599999 4.2690001 0.60299999
0.889 4.2690001 0.59600002
0.847 4.2719998 0.60399997
0.84799999 4.2719998 0.62300003
0.86900002 4.2719998 0.59899998
0.87599999 4.2719998 0.60299999
0.889 4.2719998 0.59600002
0.847 4.2750001 0.60399997
0.84799999 4.2750001 0.62300003
0.86900002 4.2750001 0.59899998
0.87599999 4.2750001 0.60299999
0.889 4.2750001 0.59600002
0.847 4.2779999 0.60399997
0.84799999 4.2779999 0.62300003
0.86900002 4.2779999 0.59899998
0.87599999 4.2779999 0.60299999
0.889 4.2779999 0.59600002
0.86799997 4.2810001 0.57999998
0.87099999 4.2810001 0.59500003
0.86799997 4.2839999 0.57999998
0.87099999 4.2839999 0.59500003
0.86799997 4.2870002 0.57999998
0.87099999 4.2870002 0.59500003
0.86799997 4.29 0.57999998
0.87099999 4.29 0.59500003
0.86799997 4.2930002 0.57999998
0.87099999 4.2930002 0.59500003
0.86799997 4.296 0.57999998
0.87099999 4.296 0.59500003
0.86799997 4.2989998 0.57999998
0.87099999 4.2989998 0.59500003
-1.335 1.386 0.493
-1.323 1.386 0.47499999
-1.3099999 1.386 0.47600001
-1.3200001 1.386 0.44299999
-1.304 1.386 0.44800001
-1.335 1.3890001 0.493
-1.323 1.3890001 0.47499999
-1.3099999 1.3890001 0.47600001
-1.3200001 1.3890001 0.44299999
-1.304 1.3890001 0.44800001
-1.335 1.392 0.493
-1.323 1.392 0.47499999
-1.3099999 1.392 0.47600001
-1.3200001 1.392 0.44299999
-1.304 1.392 0.44800001
-1.335 1.395 0.493
-1.323 1.395 0.47499999
-1.3099999 1.395 0.47600001
-1.3200001 1.395 0.44299999
-1.304 1.395 0.44800001
-1.335 1.398 0.493
-1.323 1.398 0.47499999
-1.3099999 1.398 0.47600001
-1.3200001 1.398 0.44299999
-1.304 1.398 0.44800001
-1.335 1.401 0.493
-1.323 1.401 0.47499999
-1.3099999 1.401 0.47600001
-1.3200001 1.401 0.44299999
-1.304 1.401 0.44800001
-1.335 1.404 0.493
-1.323 1.404 0.47499999
-1.3099999 1.404 0.47600001
-1.3200001 1.404 0.44299999
-1.304 1.404 0.44800001
-1.335 1.4069999 0.493
-1.323 1.4069999 0.47499999
-1.3099999 1.4069999 0.47600001
-1.3200001 1.4069999 0.44299999
-1.304 1.4069999 0.44800001
-1.335 1.41 0.493
-1.323 1.41 0.47499999
-1.3099999 1.41 0.47600001
-1.3200001 1.41 0.44299999
-1.304 1.41 0.44800001
-1.335 1.413 0.493
-1.323 1.413 0.47499999
-1.3099999 1.413 0.47600001
-1.3200001 1.413 0.44299999
-1.304 1.413 0.44800001
-1.335 1.416 0.493
-1.323 1.416 0.47499999
-1.3099999 1.416 0.47600001
-1.3200001 1.416 0.44299999
-1.304 1.416 0.44800001
-1.335 1.419 0.493
-1.323 1.419 0.47499999
-1.3099999 1.419 0.47600001
-1.3200001 1.419 0.44299999
-1.304 1.419 0.44800001
-1.335 1.4220001 0.493
-1.323 1.4220001 0.47499999
-1.3099999 1.4220001 0.47600001
-1.3200001 1.4220001 0.44299999
-1.304 1.4220001 0.44800001
-1.372 1.431 0.38600001
-1.372 1.434 0.38600001
-1.372 1.437 0.38600001
-1.372 1.4400001 0.38600001
-1.372 1.443 0.38600001
-1.372 1.446 0.38600001
-1.372 1.449 0.38600001
-1.372 1.452 0.38600001
-1.372 1.455 0.38600001
-1.372 1.4579999 0.38600001
-1.3200001 1.461 0.44299999
-1.325 1.461 0.417
-1.3200001 1.464 0.44299999
-1.325 1.464 0.417
-1.3200001 1.467 0.44299999
-1.3200001 1.47 0.44299999
-1.3200001 1.473 0.44299999
-1.3200001 1.476 0.44299999
0.63800001 16.646999 0.52100003
0.66100001 16.646999 0.50700003
0.63800001 16.65 0.52100003
0.65899998 16.65 0.486
0.66100001 16.65 0.50700003
0.63800001 16.653 0.52100003
0.65899998 16.653 0.486
0.66100001 16.653 0.50700003
0.63800001 16.656 0.52100003
0.65899998 16.656 0.486
0.66100001 16.656 0.50700003
0.63800001 16.659 0.52100003
0.65899998 16.659 0.486
0.66100001 16.659 0.50700003
0.63800001 16.662001 0.52100003
0.65899998 16.662001 0.486
0.66100001 16.662001 0.50700003
0.63800001 16.665001 0.52100003
0.65899998 16.665001 0.486
0.66100001 16.665001 0.50700003
0.63800001 16.667999 0.52100003
0.65899998 16.667999 0.486
0.66100001 16.667999 0.50700003
0.63800001 16.671 0.52100003
0.65899998 16.671 0.486
0.66100001 16.671 0.50700003
0.63800001 16.674 0.52100003
0.65899998 16.674 0.486
0.66100001 16.674 0.50700003
0.63800001 16.677 0.52100003
0.65899998 16.677 0.486
0.66100001 16.677 0.50700003
0.63800001 16.68 0.52100003
0.65899998 16.68 0.486
0.66100001 16.68 0.50700003
0.70700002 16.757999 0.48199999
0.704 16.757999 0.51599997
0.71200001 16.757999 0.52100003
0.70700002 16.761 0.48199999
0.704 16.761 0.51599997
0.71200001 16.761 0.52100003
0.70700002 16.764 0.48199999
0.704 16.764 0.51599997
0.71200001 16.764 0.52100003
0.70700002 16.767 0.48199999
0.704 16.767 0.51599997
0.71200001 16.767 0.52100003
0.70700002 16.77 0.48199999
0.704 16.77 0.51599997
0.71200001 16.77 0.52100003
0.70700002 16.773001 0.48199999
0.704 16.773001 0.51599997
0.71200001 16.773001 0.52100003
0.70700002 16.775999 0.48199999
0.704 16.775999 0.51599997
0.71200001 16.775999 0.52100003
0.70700002 16.778999 0.48199999
0.704 16.778999 0.51599997
0.71200001 16.778999 0.52100003
0.70700002 16.782 0.48199999
0.704 16.782 0.51599997
0.71200001 16.782 0.52100003
0.70700002 16.785 0.48199999
0.704 16.785 0.51599997
0.71200001 16.785 0.52100003
0.70700002 16.788 0.48199999
0.704 16.788 0.51599997
0.71200001 16.788 0.52100003
0.70700002 16.791 0.48199999
0.704 16.791 0.51599997
0.71200001 16.791 0.52100003
0.69 16.794001 0.505
0.69 16.797001 0.505
0.69 16.799999 0.505
0.69 16.802999 0.505
0.69 16.806 0.505
0.69 16.809 0.505
0.69 16.812 0.505
0.69 16.815001 0.505
0.69 16.818001 0.505
0.69 16.820999 0.505
0.69 16.823999 0.505
0.69 16.827 0.505
0.616 5.217 1.405
0.64999998 5.217 1.359
0.63 5.217 1.401
0.639 5.217 1.396
0.63800001 5.217 1.408
0.64899999 5.217 1.401
0.616 5.2199998 1.405
0.64999998 5.2199998 1.359
0.63 5.2199998 1.401
0.639 5.2199998 1.396
0.63800001 5.2199998 1.408
0.64899999 5.2199998 1.401
0.616 5.223 1.405
0.64999998 5.223 1.359
0.63 5.223 1.401
0.639 5.223 1.396
0.63800001 5.223 1.408
0.64899999 5.223 1.401
0.616 5.2259998 1.405
0.64999998 5.2259998 1.359
0.63 5.2259998 1.401
0.639 5.2259998 1.396
0.63800001 5.2259998 1.408
0.64899999 5.2259998 1.401
0.616 5.2290001 1.405
0.64999998 5.2290001 1.359
0.63 5.2290001 1.401
0.639 5.2290001 1.396
0.63800001 5.2290001 1.408
0.64899999 5.2290001 1.401
0.616 5.2319999 1.405
0.64999998 5.2319999 1.359
0.63 5.2319999 1.401
0.639 5.2319999 1.396
0.63800001 5.2319999 1.408
0.64899999 5.2319999 1.401
0.616 5.2350001 1.405
0.64999998 5.2350001 1.359
0.63 5.2350001 1.401
0.639 5.2350001 1.396
0.63800001 5.2350001 1.408
0.64899999 5.2350001 1.401
0.616 5.2379999 1.405
0.64999998 5.2379999 1.359
0.63 5.2379999 1.401
0.639 5.2379999 1.396
0.63800001 5.2379999 1.408
0.64899999 5.2379999 1.401
0.616 5.2410002 1.405
0.64999998 5.2410002 1.359
0.63 5.2410002 1.401
0.639 5.2410002 1.396
0.63800001 5.2410002 1.408
0.64899999 5.2410002 1.401
0.616 5.244 1.405
0.64999998 5.244 1.359
0.63 5.244 1.401
0.639 5.244 1.396
0.63800001 5.244 1.408
0.64899999 5.244 1.401
0.616 5.2470002 1.405
0.64999998 5.2470002 1.359
0.63 5.2470002 1.401
0.639 5.2470002 1.396
0.63800001 5.2470002 1.408
0.64899999 5.2470002 1.401
0.616 5.25 1.405
0.64999998 5.25 1.359
0.63 5.25 1.401
0.639 5.25 1.396
0.63800001 5.25 1.408
0.64899999 5.25 1.401
0.65100002 5.2529998 1.3789999
0.65100002 5.256 1.3789999
0.65100002 5.2589998 1.3789999
0.65100002 5.2620001 1.3789999
0.65100002 5.2649999 1.3789999
0.65100002 5.2680001 1.3789999
0.65100002 5.2709999 1.3789999
0.65100002 5.2740002 1.3789999
0.65100002 5.277 1.3789999
0.65100002 5.2800002 1.3789999
0.65100002 5.283 1.3789999
0.59799999 3.2850001 0.63800001
0.59799999 3.2880001 0.63800001
0.59799999 3.2909999 0.63800001
0.59799999 3.2939999 0.63800001
0.59799999 3.2969999 0.63800001
0.59799999 3.3 0.63800001
0.59799999 3.303 0.63800001
0.52700001 3.306 0.62199998
0.52700001 3.306 0.64999998
0.53899997 3.306 0.63800001
0.54799998 3.306 0.63499999
0.55599999 3.306 0.63599998
0.565 3.306 0.63499999
0.52700001 3.309 0.62199998
0.52700001 3.309 0.64999998
0.53899997 3.309 0.63800001
0.54799998 3.309 0.63499999
0.55599999 3.309 0.63599998
0.565 3.309 0.63499999
0.52700001 3.312 0.62199998
0.52700001 3.312 0.64999998
0.53899997 3.312 0.63800001
0.54799998 3.312 0.63499999
0.55599999 3.312 0.63599998
0.565 3.312 0.63499999
0.52700001 3.3150001 0.62199998
0.52700001 3.3150001 0.64999998
0.53899997 3.3150001 0.63800001
0.54799998 3.3150001 0.63499999
0.55599999 3.3150001 0.63599998
0.565 3.3150001 0.63499999
0.52700001 3.3180001 0.62199998
0.52700001 3.3180001 0.64999998
0.53899997 3.3180001 0.63800001
0.54799998 3.3180001 0.63499999
0.55599999 3.3180001 0.63599998
0.565 3.3180001 0.63499999
0.52700001 3.3210001 0.62199998
0.52700001 3.3210001 0.64999998
0.53899997 3.3210001 0.63800001
0.54799998 3.3210001 0.63499999
0.55599999 3.3210001 0.63599998
0.565 3.3210001 0.63499999
0.52700001 3.3239999 0.62199998
0.52700001 3.3239999 0.64999998
0.53899997 3.3239999 0.63800001
0.54799998 3.3239999 0.63499999
0.55599999 3.3239999 0.63599998
0.565 3.3239999 0.63499999
0.52700001 3.3269999 0.62199998
0.52700001 3.3269999 0.64999998
0.53899997 3.3269999 0.63800001
0.54799998 3.3269999 0.63499999
0.55599999 3.3269999 0.63599998
0.565 3.3269999 0.63499999
0.52700001 3.3299999 0.62199998
0.52700001 3.3299999 0.64999998
0.53899997 3.3299999 0.63800001
0.54799998 3.3299999 0.63499999
0.55599999 3.3299999 0.63599998
0.565 3.3299999 0.63499999
0.52700001 3.3329999 0.62199998
0.52700001 3.3329999 0.64999998
0.53899997 3.3329999 0.63800001
0.54799998 3.3329999 0.63499999
0.55599999 3.3329999 0.63599998
0.565 3.3329999 0.63499999
0.52700001 3.336 0.62199998
0.52700001 3.336 0.64999998
0.53899997 3.336 0.63800001
0.54799998 3.336 0.63499999
0.55599999 3.336 0.63599998
0.565 3.336 0.63499999
0.52700001 3.339 0.62199998
0.52700001 3.339 0.64999998
0.53899997 3.339 0.63800001
0.54799998 3.339 0.63499999
0.55599999 3.339 0.63599998
0.565 3.339 0.63499999
0.097000003 2.595 0.375
0.097000003 2.598 0.375
0.097000003 2.6010001 0.375
0.097000003 2.6040001 0.375
0.089000002 2.6070001 0.35600001
0.097000003 2.6070001 0.375
0.089000002 2.6099999 0.35600001
0.097000003 2.6099999 0.375
0.089000002 2.6129999 0.35600001
0.097000003 2.6129999 0.375
0.089000002 2.6159999 0.35600001
0.097000003 2.6159999 0.375
0.089000002 2.619 0.35600001
0.097000003 2.619 0.375
0.089000002 2.622 0.35600001
0.097000003 2.622 0.375
0.086999997 2.625 0.40599999
0.093000002 2.625 0.46700001
0.102 2.625 0.463
0.086999997 2.628 0.40599999
0.093000002 2.628 0.46700001
0.102 2.628 0.463
0.086999997 2.631 0.40599999
0.093000002 2.631 0.46700001
0.102 2.631 0.463
0.086999997 2.6340001 0.40599999
0.093000002 2.6340001 0.46700001
0.102 2.6340001 0.463
0.086999997 2.6370001 0.40599999
0.093000002 2.6370001 0.46700001
0.102 2.6370001 0.463
0.086999997 2.6400001 0.40599999
0.093000002 2.6400001 0.46700001
0.102 2.6400001 0.463
0.086999997 2.6429999 0.40599999
0.093000002 2.6429999 0.46700001
0.102 2.6429999 0.463
0.086999997 2.6459999 0.40599999
0.093000002 2.6459999 0.46700001
0.102 2.6459999 0.463
0.086999997 2.6489999 0.40599999
0.093000002 2.6489999 0.46700001
0.102 2.6489999 0.463
0.086999997 2.652 0.40599999
0.093000002 2.652 0.46700001
0.102 2.652 0.463
0.086999997 2.655 0.40599999
0.093000002 2.655 0.46700001
0.102 2.655 0.463
0.086999997 2.658 0.40599999
0.093000002 2.658 0.46700001
0.102 2.658 0.463
0.086999997 2.661 0.40599999
0.093000002 2.661 0.46700001
0.102 2.661 0.463
0.102 2.664 0.447
0.111 2.664 0.44600001
0.102 2.6670001 0.447
0.111 2.6670001 0.44600001
0.102 2.6700001 0.447
0.111 2.6700001 0.44600001
0.102 2.6730001 0.447
0.111 2.6730001 0.44600001
0.102 2.6760001 0.447
0.111 2.6760001 0.44600001
0.102 2.6789999 0.447
0.111 2.6789999 0.44600001
0.102 2.6819999 0.447
0.111 2.6819999 0.44600001
0.102 2.6849999 0.447
0.111 2.6849999 0.44600001
0.102 2.688 0.447
0.111 2.688 0.44600001
0.102 2.691 0.447
0.111 2.691 0.44600001
0.102 2.694 0.447
0.111 2.694 0.44600001
0.102 2.697 0.447
0.111 2.697 0.44600001
0.92900002 2.9909999 1.023
0.95599997 2.9909999 0.99599999
0.95200002 2.9909999 1.015
0.95499998 2.9909999 1.024
0.92900002 2.994 1.023
0.95599997 2.994 0.99599999
0.95200002 2.994 1.015
0.95499998 2.994 1.024
0.92900002 2.997 1.023
0.95599997 2.997 0.99599999
0.95200002 2.997 1.015
0.95499998 2.997 1.024
0.92900002 3 1.023
0.95599997 3 0.99599999
0.95200002 3 1.015
0.95499998 3 1.024
0.92900002 3.003 1.023
0.95599997 3.003 0.99599999
0.95200002 3.003 1.015
0.95499998 3.003 1.024
0.92900002 3.006 1.023
0.95599997 3.006 0.99599999
0.95200002 3.006 1.015
0.95499998 3.006 1.024
0.92900002 3.0090001 1.023
0.95599997 3.0090001 0.99599999
0.95200002 3.0090001 1.015
0.95499998 3.0090001 1.024
0.92900002 3.0120001 1.023
0.95599997 3.0120001 0.99599999
0.95200002 3.0120001 1.015
0.95499998 3.0120001 1.024
0.92900002 3.0150001 1.023
0.95599997 3.0150001 0.99599999
0.95200002 3.0150001 1.015
0.95499998 3.0150001 1.024
0.92900002 3.0179999 1.023
0.95599997 3.0179999 0.99599999
0.95200002 3.0179999 1.015
0.95499998 3.0179999 1.024
0.92900002 3.0209999 1.023
0.95599997 3.0209999 0.99599999
0.95200002 3.0209999 1.015
0.95499998 3.0209999 1.024
0.92900002 3.0239999 1.023
0.95599997 3.0239999 0.99599999
0.95200002 3.0239999 1.015
0.95499998 3.0239999 1.024
0.92900002 3.027 1.023
0.95599997 3.027 0.99599999
0.95200002 3.027 1.015
0.95499998 3.027 1.024
0.95099998 3.03 1.016
0.94800001 3.03 1.034
0.95099998 3.033 1.016
0.94800001 3.033 1.034
0.95099998 3.036 1.016
0.94800001 3.036 1.034
0.95099998 3.039 1.016
0.94800001 3.039 1.034
0.95099998 3.0420001 1.016
0.94800001 3.0420001 1.034
0.95099998 3.0450001 1.016
0.94800001 3.0450001 1.034
0.95099998 3.0480001 1.016
0.94800001 3.0480001 1.034
0.95099998 3.0510001 1.016
0.94800001 3.0510001 1.034
0.95099998 3.0539999 1.016
0.94800001 3.0539999 1.034
0.95099998 3.0569999 1.016
0.94800001 3.0569999 1.034
0.95099998 3.0599999 1.016
0.94800001 3.0599999 1.034
0.95099998 3.063 1.016
0.94800001 3.063 1.034
0.95099998 3.066 1.016
0.94800001 3.066 1.034
0.16500001 15.597 0.68400002
0.171 15.597 0.70499998
0.178 15.597 0.708
0.16500001 15.6 0.68400002
0.171 15.6 0.70499998
0.178 15.6 0.708
0.16500001 15.603 0.68400002
0.171 15.603 0.70499998
0.178 15.603 0.708
0.16500001 15.606 0.68400002
0.171 15.606 0.70499998
0.178 15.606 0.708
0.16500001 15.609 0.68400002
0.171 15.609 0.70499998
0.178 15.609 0.708
0.16500001 15.612 0.68400002
0.171 15.612 0.70499998
0.178 15.612 0.708
0.156 15.615 0.704
0.163 15.615 0.70899999
0.171 15.615 0.70700002
0.178 15.615 0.70999998
0.185 15.615 0.70899999
0.156 15.618 0.704
0.163 15.618 0.70899999
0.171 15.618 0.70700002
0.178 15.618 0.70999998
0.185 15.618 0.70899999
0.156 15.621 0.704
0.163 15.621 0.70899999
0.171 15.621 0.70700002
0.178 15.621 0.70999998
0.185 15.621 0.70899999
0.156 15.624 0.704
0.163 15.624 0.70899999
0.171 15.624 0.70700002
0.178 15.624 0.70999998
0.185 15.624 0.70899999
0.156 15.627 0.704
0.163 15.627 0.70899999
0.171 15.627 0.70700002
0.178 15.627 0.70999998
0.185 15.627 0.70899999
0.156 15.63 0.704
0.163 15.63 0.70899999
0.171 15.63 0.70700002
0.178 15.63 0.70999998
0.185 15.63 0.70899999
0.156 15.633 0.704
0.163 15.633 0.70899999
0.171 15.633 0.70700002
0.178 15.633 0.70999998
0.185 15.633 0.70899999
0.156 15.636 0.704
0.163 15.636 0.70899999
0.171 15.636 0.70700002
0.178 15.636 0.70999998
0.185 15.636 0.70899999
0.156 15.639 0.704
0.163 15.639 0.70899999
0.171 15.639 0.70700002
0.178 15.639 0.70999998
0.185 15.639 0.70899999
0.156 15.642 0.704
0.163 15.642 0.70899999
0.171 15.642 0.70700002
0.178 15.642 0.70999998
0.185 15.642 0.70899999
0.156 15.645 0.704
0.163 15.645 0.70899999
0.171 15.645 0.70700002
0.178 15.645 0.70999998
0.185 15.645 0.70899999
0.156 15.648 0.704
0.163 15.648 0.70899999
0.171 15.648 0.70700002
0.178 15.648 0.70999998
0.185 15.648 0.70899999
0.101 8.2440004 1.044
0.106 8.2440004 1.056
0.112 8.2440004 1.0470001
0.101 8.2469997 1.044
0.106 8.2469997 1.056
0.112 8.2469997 1.0470001
0.101 8.25 1.044
0.106 8.25 1.056
0.112 8.25 1.0470001
0.101 8.2530003 1.044
0.106 8.2530003 1.056
0.112 8.2530003 1.0470001
0.101 8.2559996 1.044
0.106 8.2559996 1.056
0.112 8.2559996 1.0470001
0.101 8.2589998 1.044
0.106 8.2589998 1.056
0.112 8.2589998 1.0470001
0.101 8.2620001 1.044
0.106 8.2620001 1.056
0.112 8.2620001 1.0470001
0.101 8.2650003 1.044
0.106 8.2650003 1.056
0.112 8.2650003 1.0470001
0.101 8.2679996 1.044
0.106 8.2679996 1.056
0.112 8.2679996 1.0470001
0.101 8.2709999 1.044
0.106 8.2709999 1.056
0.112 8.2709999 1.0470001
0.101 8.2740002 1.044
0.106 8.2740002 1.056
0.112 8.2740002 1.0470001
0.101 8.2770004 1.044
0.106 8.2770004 1.056
0.112 8.2770004 1.0470001
0.101 8.2799997 1.044
0.106 8.2799997 1.056
0.112 8.2799997 1.0470001
0.1 8.283 1.054
0.106 8.283 1.052
0.112 8.283 1.0549999
0.1 8.2860003 1.054
0.106 8.2860003 1.052
0.112 8.2860003 1.0549999
0.1 8.2889996 1.054
0.106 8.2889996 1.052
0.112 8.2889996 1.0549999
0.1 8.2919998 1.054
0.106 8.2919998 1.052
0.112 8.2919998 1.0549999
0.1 8.2950001 1.054
0.106 8.2950001 1.052
0.112 8.2950001 1.0549999
0.1 8.2980003 1.054
0.106 8.2980003 1.052
0.112 8.2980003 1.0549999
0.1 8.3009996 1.054
0.106 8.3009996 1.052
0.112 8.3009996 1.0549999
0.1 8.3039999 1.054
0.106 8.3039999 1.052
0.112 8.3039999 1.0549999
0.1 8.3070002 1.054
0.106 8.3070002 1.052
0.112 8.3070002 1.0549999
0.1 8.3100004 1.054
0.106 8.3100004 1.052
0.112 8.3100004 1.0549999
0.1 8.3129997 1.054
0.106 8.3129997 1.052
0.112 8.3129997 1.0549999
0.1 8.316 1.054
0.106 8.316 1.052
0.112 8.316 1.0549999
0.1 8.3190002 1.054
0.106 8.3190002 1.052
0.112 8.3190002 1.0549999
-1.188 2.829 0.70300001
-1.212 2.829 0.65200001
-1.197 2.829 0.65799999
-1.1900001 2.829 0.653
-1.179 2.829 0.65200001
-1.188 2.832 0.70300001
-1.212 2.832 0.65200001
-1.197 2.832 0.65799999
-1.1900001 2.832 0.653
-1.179 2.832 0.65200001
-1.188 2.835 0.70300001
-1.212 2.835 0.65200001
-1.197 2.835 0.65799999
-1.1900001 2.835 0.653
-1.179 2.835 0.65200001
-1.188 2.8380001 0.70300001
-1.212 2.8380001 0.65200001
-1.197 2.8380001 0.65799999
-1.1900001 2.8380001 0.653
-1.179 2.8380001 0.65200001
-1.188 2.8410001 0.70300001
-1.212 2.8410001 0.65200001
-1.197 2.8410001 0.65799999
-1.1900001 2.8410001 0.653
-1.179 2.8410001 0.65200001
-1.188 2.8440001 0.70300001
-1.212 2.8440001 0.65200001
-1.197 2.8440001 0.65799999
-1.1900001 2.8440001 0.653
-1.179 2.8440001 0.65200001
-1.188 2.8469999 0.70300001
-1.212 2.8469999 0.65200001
-1.197 2.8469999 0.65799999
-1.1900001 2.8469999 0.653
-1.179 2.8469999 0.65200001
-1.188 2.8499999 0.70300001
-1.212 2.8499999 0.65200001
-1.197 2.8499999 0.65799999
-1.1900001 2.8499999 0.653
-1.179 2.8499999 0.65200001
-1.188 2.8529999 0.70300001
-1.212 2.8529999 0.65200001
-1.197 2.8529999 0.65799999
-1.1900001 2.8529999 0.653
-1.179 2.8529999 0.65200001
-1.188 2.8559999 0.67199999
-1.186 2.8559999 0.65799999
-1.179 2.8559999 0.65200001
-1.188 2.859 0.67199999
-1.186 2.859 0.65799999
-1.179 2.859 0.65200001
-1.188 2.862 0.67199999
-1.186 2.862 0.65799999
-1.179 2.862 0.65200001
-1.188 2.865 0.67199999
-1.186 2.865 0.65799999
-1.179 2.865 0.65200001
-1.188 2.868 0.67199999
-1.186 2.868 0.65799999
-1.179 2.868 0.65200001
-1.188 2.8710001 0.67199999
-1.186 2.8710001 0.65799999
-1.179 2.8710001 0.65200001
-1.188 2.8740001 0.67199999
-1.186 2.8740001 0.65799999
-1.179 2.8740001 0.65200001
-1.188 2.8770001 0.67199999
-1.186 2.8770001 0.65799999
-1.179 2.8770001 0.65200001
-1.188 2.8800001 0.67199999
-1.186 2.8800001 0.65799999
-1.179 2.8800001 0.65200001
-1.188 2.8829999 0.67199999
-1.186 2.8829999 0.65799999
-1.179 2.8829999 0.65200001
-1.188 2.8859999 0.67199999
-1.186 2.8859999 0.65799999
-1.179 2.8859999 0.65200001
-0.212 10.5 0.93900001
-0.206 10.5 0.93099999
-0.198 10.5 0.94300002
-0.193 10.5 0.935
-0.212 10.503 0.93900001
-0.206 10.503 0.93099999
-0.198 10.503 0.94300002
-0.193 10.503 0.935
-0.212 10.506 0.93900001
-0.206 10.506 0.93099999
-0.198 10.506 0.94300002
-0.193 10.506 0.935
-0.212 10.509 0.93900001
-0.206 10.509 0.93099999
-0.198 10.509 0.94300002
-0.193 10.509 0.935
-0.212 10.512 0.93900001
-0.206 10.512 0.93099999
-0.198 10.512 0.94300002
-0.193 10.512 0.935
-0.212 10.515 0.93900001
-0.206 10.515 0.93099999
-0.198 10.515 0.94300002
-0.193 10.515 0.935
-0.212 10.518 0.93900001
-0.206 10.518 0.93099999
-0.198 10.518 0.94300002
-0.193 10.518 0.935
-0.212 10.521 0.93900001
-0.206 10.521 0.93099999
-0.198 10.521 0.94300002
-0.193 10.521 0.935
-0.212 10.524 0.93900001
-0.206 10.524 0.93099999
-0.198 10.524 0.94300002
-0.193 10.524 0.935
-0.212 10.527 0.93900001
-0.206 10.527 0.93099999
-0.198 10.527 0.94300002
-0.193 10.527 0.935
-0.212 10.53 0.93900001
-0.206 10.53 0.93099999
-0.198 10.53 0.94300002
-0.193 10.53 0.935
-0.212 10.533 0.93900001
-0.206 10.533 0.93099999
-0.198 10.533 0.94300002
-0.193 10.533 0.935
-0.21600001 10.536 0.95499998
-0.211 10.536 0.94599998
-0.204 10.536 0.94800001
-0.197 10.536 0.94999999
-0.192 10.536 0.94400001
-0.21600001 10.539 0.95499998
-0.211 10.539 0.94599998
-0.204 10.539 0.94800001
-0.197 10.539 0.94999999
-0.192 10.539 0.94400001
-0.21600001 10.542 0.95499998
-0.211 10.542 0.94599998
-0.204 10.542 0.94800001
-0.197 10.542 0.94999999
-0.192 10.542 0.94400001
-0.21600001 10.545 0.95499998
-0.211 10.545 0.94599998
-0.204 10.545 0.94800001
-0.197 10.545 0.94999999
-0.192 10.545 0.94400001
-0.21600001 10.548 0.95499998
-0.211 10.548 0.94599998
-0.204 10.548 0.94800001
-0.197 10.548 0.94999999
-0.192 10.548 0.94400001
-0.21600001 10.551 0.95499998
-0.211 10.551 0.94599998
-0.204 10.551 0.94800001
-0.197 10.551 0.94999999
-0.192 10.551 0.94400001
0.58499998 6.6059999 1.173
0.60699999 6.6059999 1.155
0.611 6.6059999 1.161
0.61400002 6.6059999 1.169
0.62699997 6.6059999 1.155
0.63200003 6.6059999 1.159
0.58499998 6.6090002 1.173
0.60699999 6.6090002 1.155
0.611 6.6090002 1.161
0.61400002 6.6090002 1.169
0.62699997 6.6090002 1.155
0.63200003 6.6090002 1.159
0.58499998 6.612 1.173
0.60699999 6.612 1.155
0.611 6.612 1.161
0.61400002 6.612 1.169
0.62699997 6.612 1.155
0.63200003 6.612 1.159
0.58499998 6.6149998 1.173
0.60699999 6.6149998 1.155
0.611 6.6149998 1.161
0.61400002 6.6149998 1.169
0.62699997 6.6149998 1.155
0.63200003 6.6149998 1.159
0.58499998 6.618 1.173
0.60699999 6.618 1.155
0.611 6.618 1.161
0.61400002 6.618 1.169
0.62699997 6.618 1.155
0.63200003 6.618 1.159
0.58499998 6.6209998 1.173
0.60699999 6.6209998 1.155
0.611 6.6209998 1.161
0.61400002 6.6209998 1.169
0.62699997 6.6209998 1.155
0.63200003 6.6209998 1.159
0.58499998 6.6240001 1.173
0.60699999 6.6240001 1.155
0.611 6.6240001 1.161
0.61400002 6.6240001 1.169
0.62699997 6.6240001 1.155
0.63200003 6.6240001 1.159
0.58499998 6.6269999 1.173
0.60699999 6.6269999 1.155
0.611 6.6269999 1.161
0.61400002 6.6269999 1.169
0.62699997 6.6269999 1.155
0.63200003 6.6269999 1.159
0.58499998 6.6300001 1.173
0.60699999 6.6300001 1.155
0.611 6.6300001 1.161
0.61400002 6.6300001 1.169
0.62699997 6.6300001 1.155
0.63200003 6.6300001 1.159
0.58499998 6.6329999 1.173
0.60699999 6.6329999 1.155
0.611 6.6329999 1.161
0.61400002 6.6329999 1.169
0.62699997 6.6329999 1.155
0.63200003 6.6329999 1.159
0.58499998 6.6360002 1.173
0.60699999 6.6360002 1.155
0.611 6.6360002 1.161
0.61400002 6.6360002 1.169
0.62699997 6.6360002 1.155
0.63200003 6.6360002 1.159
0.58499998 6.6389999 1.173
0.60699999 6.6389999 1.155
0.611 6.6389999 1.161
0.61400002 6.6389999 1.169
0.62699997 6.6389999 1.155
0.63200003 6.6389999 1.159
0.58499998 6.6420002 1.173
0.60699999 6.6420002 1.155
0.611 6.6420002 1.161
0.61400002 6.6420002 1.169
0.62699997 6.6420002 1.155
0.63200003 6.6420002 1.159
0.62400001 9.5039997 0.32800001
0.65899998 9.5039997 0.31
0.62400001 9.507 0.32800001
0.65899998 9.507 0.31
0.62400001 9.5100002 0.32800001
0.65899998 9.5100002 0.31
0.62400001 9.5129995 0.32800001
0.65899998 9.5129995 0.31
0.62400001 9.5159998 0.32800001
0.65899998 9.5159998 0.31
0.62400001 9.5190001 0.32800001
0.65899998 9.5190001 0.31
0.62400001 9.5220003 0.32800001
0.65899998 9.5220003 0.31
0.62400001 9.5249996 0.32800001
0.65899998 9.5249996 0.31
0.62400001 9.5279999 0.32800001
0.65899998 9.5279999 0.31
0.62400001 9.5310001 0.32800001
0.65899998 9.5310001 0.31
0.62400001 9.5340004 0.32800001
0.65899998 9.5340004 0.31
0.62400001 9.5369997 0.32800001
0.65899998 9.5369997 0.31
0.62400001 9.54 0.32800001
0.65899998 9.54 0.31
0.625 9.5430002 0.32300001
0.63599998 9.5430002 0.32100001
0.64099997 9.5430002 0.336
0.653 9.5430002 0.33000001
0.625 9.5459995 0.32300001
0.63599998 9.5459995 0.32100001
0.64099997 9.5459995 0.336
0.653 9.5459995 0.33000001
0.625 9.5489998 0.32300001
0.63599998 9.5489998 0.32100001
0.64099997 9.5489998 0.336
0.653 9.5489998 0.33000001
0.625 9.552 0.32300001
0.63599998 9.552 0.32100001
0.64099997 9.552 0.336
0.653 9.552 0.33000001
0.58499998 9.5550003 0.359
0.58499998 9.5579996 0.359
0.58499998 9.5609999 0.359
0.58499998 9.5640001 0.359
0.58499998 9.5670004 0.359
0.58499998 9.5699997 0.359
0.58499998 9.573 0.359
0.58499998 9.5760002 0.359
0.58499998 9.5790005 0.359
0.58499998 9.5819998 0.359
0.58499998 9.585 0.359
0.58499998 9.5880003 0.359
0.58099997 9.5909996 0.34
0.59600002 9.5909996 0.35499999
0.58099997 9.5939999 0.34
0.59600002 9.5939999 0.35499999
0.59600002 9.5970001 0.35499999
0.59600002 9.6000004 0.35499999
0.574 9.6630001 0.33000001
0.574 9.6660004 0.33000001
0.574 9.6689997 0.33000001
0.574 9.6719999 0.33000001
0.574 9.6750002 0.33000001
0.574 9.6780005 0.33000001
0.574 9.6809998 0.33000001
0.574 9.684 0.33000001
0.574 9.6870003 0.33000001
0.574 9.6899996 0.33000001
0.574 9.6929998 0.33000001
0.57700002 9.6960001 0.31999999
0.57700002 9.6990004 0.31999999
0.57700002 9.7019997 0.31999999
0.57700002 9.7049999 0.31999999
0.57700002 9.7080002 0.31999999
0.57700002 9.7110004 0.31999999
-0.67199999 16.110001 1.1619999
-0.65700001 16.110001 1.176
-0.662 16.110001 1.154
-0.65100002 16.110001 1.163
-0.64200002 16.110001 1.1670001
-0.67199999 16.113001 1.1619999
-0.65700001 16.113001 1.176
-0.662 16.113001 1.154
-0.65100002 16.113001 1.163
-0.64200002 16.113001 1.1670001
-0.67199999 16.115999 1.1619999
-0.65700001 16.115999 1.176
-0.662 16.115999 1.154
-0.65100002 16.115999 1.163
-0.64200002 16.115999 1.1670001
-0.67199999 16.118999 1.1619999
-0.65700001 16.118999 1.176
-0.662 16.118999 1.154
-0.65100002 16.118999 1.163
-0.64200002 16.118999 1.1670001
-0.67199999 16.122 1.1619999
-0.65700001 16.122 1.176
-0.662 16.122 1.154
