# .PCD v0.7 - Point Cloud Data file format
VERSION 0.7
FIELDS x y z
SIZE 4 4 4
TYPE F F F
COUNT 1 1 1
WIDTH 1591
HEIGHT 1
VIEWPOINT 0 0 0 1 0 0 0
POINTS 1591
DATA ascii
1.007 0.41663098 0.42399999
0.52999997 0.41663098 1.425
0.92900002 0.41663098 0.741
1.044 0.41663098 0.55400002
-0.66100001 0.41834554 0.69999999
-0.59100002 0.41834554 0.861
-0.5 0.41834554 0.861
-0.53399998 0.41834554 0.73100001
-0.486 0.41834554 0.85900003
-0.472 0.41834554 0.88099998
-0.46599999 0.41834554 0.87699997
-0.45899999 0.41834554 0.87400001
-0.45100001 0.41834554 0.87699997
-0.44499999 0.41834554 0.87400001
-0.44400001 0.41834554 0.85100001
-0.45199999 0.41834554 0.79699999
-0.46399999 0.41834554 0.72799999
-0.449 0.41834554 0.75199997
-0.49399999 0.41834554 0.55800003
-0.46900001 0.41834554 0.61699998
-0.50999999 0.41834554 0.428
-0.46399999 0.41834554 0.574
0.226 0.41834554 0.421
0.264 0.41834554 0.46200001
0.273 0.41834554 0.45899999
0.23199999 0.41834554 0.80000001
0.264 0.41834554 0.634
0.248 0.41834554 0.787
0.255 0.41834554 0.78899997
0.26100001 0.41834554 0.79900002
0.26800001 0.41834554 0.79799998
0.27399999 0.41834554 0.80400002
0.28200001 0.41834554 0.80000001
0.289 0.41834554 0.80000001
0.34400001 0.41834554 0.54500002
0.59399998 0.41834554 0.42699999
0.54400003 0.41834554 0.648
0.51200002 0.41834554 0.847
0.53500003 0.41834554 0.80000001
0.53399998 0.41834554 0.82700002
0.62900001 0.41834554 0.57300001
0.72100002 0.41834554 0.47099999
0.66799998 0.41834554 0.63700002
0.60500002 0.41834554 0.82300001
0.56400001 0.41834554 0.949
0.51700002 0.41834554 1.086
0.51200002 0.41834554 1.117
0.55199999 0.41834554 1.033
0.56 0.41834554 1.0319999
0.56900001 0.41834554 1.027
0.57099998 0.41834554 1.038
0.57800001 0.41834554 1.039
0.59100002 0.41834554 1.024
0.59799999 0.41834554 1.024
0.53899997 0.41834554 1.175
0.54299998 0.41834554 1.181
0.546 0.41834554 1.188
0.55400002 0.41834554 1.1849999
0.56099999 0.41834554 1.184
0.56199998 0.41834554 1.196
0.57300001 0.41834554 1.184
1.007 0.41834554 0.42399999
0.52999997 0.41834554 1.425
0.92900002 0.41834554 0.741
1.044 0.41834554 0.55400002
-0.66100001 0.4200601 0.69999999
-0.59100002 0.4200601 0.861
-0.5 0.4200601 0.861
-0.53399998 0.4200601 0.73100001
-0.486 0.4200601 0.85900003
-0.472 0.4200601 0.88099998
-0.46599999 0.4200601 0.87699997
-0.45899999 0.4200601 0.87400001
-0.45100001 0.4200601 0.87699997
-0.44499999 0.4200601 0.87400001
-0.44400001 0.4200601 0.85100001
-0.45199999 0.4200601 0.79699999
-0.46399999 0.4200601 0.72799999
-0.449 0.4200601 0.75199997
-0.49399999 0.4200601 0.55800003
-0.46900001 0.4200601 0.61699998
-0.50999999 0.4200601 0.428
-0.46399999 0.4200601 0.574
0.226 0.4200601 0.421
0.264 0.4200601 0.46200001
0.273 0.4200601 0.45899999
0.23199999 0.4200601 0.80000001
0.264 0.4200601 0.634
0.248 0.4200601 0.787
0.255 0.4200601 0.78899997
0.26100001 0.4200601 0.79900002
0.26800001 0.4200601 0.79799998
0.27399999 0.4200601 0.80400002
0.28200001 0.4200601 0.80000001
0.289 0.4200601 0.80000001
0.34400001 0.4200601 0.54500002
0.59399998 0.4200601 0.42699999
0.54400003 0.4200601 0.648
0.51200002 0.4200601 0.847
0.53500003 0.4200601 0.80000001
0.53399998 0.4200601 0.82700002
0.62900001 0.4200601 0.57300001
0.72100002 0.4200601 0.47099999
0.66799998 0.4200601 0.63700002
0.60500002 0.4200601 0.82300001
0.56400001 0.4200601 0.949
0.51700002 0.4200601 1.086
0.51200002 0.4200601 1.117
0.55199999 0.4200601 1.033
0.56 0.4200601 1.0319999
0.56900001 0.4200601 1.027
0.57099998 0.4200601 1.038
0.57800001 0.4200601 1.039
0.59100002 0.4200601 1.024
0.59799999 0.4200601 1.024
0.53899997 0.4200601 1.175
0.54299998 0.4200601 1.181
0.546 0.4200601 1.188
0.55400002 0.4200601 1.1849999
0.56099999 0.4200601 1.184
0.56199998 0.4200601 1.196
0.57300001 0.4200601 1.184
1.007 0.4200601 0.42399999
0.52999997 0.4200601 1.425
0.92900002 0.4200601 0.741
1.044 0.4200601 0.55400002
-0.66100001 0.42177463 0.69999999
-0.59100002 0.42177463 0.861
-0.5 0.42177463 0.861
-0.53399998 0.42177463 0.73100001
-0.486 0.42177463 0.85900003
-0.472 0.42177463 0.88099998
-0.46599999 0.42177463 0.87699997
-0.45899999 0.42177463 0.87400001
-0.45100001 0.42177463 0.87699997
-0.44499999 0.42177463 0.87400001
-0.44400001 0.42177463 0.85100001
-0.45199999 0.42177463 0.79699999
-0.46399999 0.42177463 0.72799999
-0.449 0.42177463 0.75199997
-0.49399999 0.42177463 0.55800003
-0.46900001 0.42177463 0.61699998
-0.50999999 0.42177463 0.428
-0.46399999 0.42177463 0.574
0.226 0.42177463 0.421
0.264 0.42177463 0.46200001
0.273 0.42177463 0.45899999
0.23199999 0.42177463 0.80000001
0.264 0.42177463 0.634
0.248 0.42177463 0.787
0.255 0.42177463 0.78899997
0.26100001 0.42177463 0.79900002
0.26800001 0.42177463 0.79799998
0.27399999 0.42177463 0.80400002
0.28200001 0.42177463 0.80000001
0.289 0.42177463 0.80000001
0.34400001 0.42177463 0.54500002
0.59399998 0.42177463 0.42699999
0.54400003 0.42177463 0.648
0.51200002 0.42177463 0.847
0.53500003 0.42177463 0.80000001
0.53399998 0.42177463 0.82700002
0.62900001 0.42177463 0.57300001
0.72100002 0.42177463 0.47099999
0.66799998 0.42177463 0.63700002
0.60500002 0.42177463 0.82300001
0.56400001 0.42177463 0.949
0.51700002 0.42177463 1.086
0.51200002 0.42177463 1.117
0.55199999 0.42177463 1.033
0.56 0.42177463 1.0319999
0.56900001 0.42177463 1.027
0.57099998 0.42177463 1.038
0.57800001 0.42177463 1.039
0.59100002 0.42177463 1.024
0.59799999 0.42177463 1.024
0.53899997 0.42177463 1.175
0.54299998 0.42177463 1.181
0.546 0.42177463 1.188
0.55400002 0.42177463 1.1849999
0.56099999 0.42177463 1.184
0.56199998 0.42177463 1.196
0.57300001 0.42177463 1.184
1.007 0.42177463 0.42399999
0.52999997 0.42177463 1.425
0.92900002 0.42177463 0.741
1.044 0.42177463 0.55400002
-0.66100001 0.42348912 0.69999999
-0.59100002 0.42348912 0.861
-0.5 0.42348912 0.861
-0.53399998 0.42348912 0.73100001
-0.486 0.42348912 0.85900003
-0.472 0.42348912 0.88099998
-0.46599999 0.42348912 0.87699997
-0.45899999 0.42348912 0.87400001
-0.45100001 0.42348912 0.87699997
-0.44499999 0.42348912 0.87400001
-0.44400001 0.42348912 0.85100001
-0.45199999 0.42348912 0.79699999
-0.46399999 0.42348912 0.72799999
-0.449 0.42348912 0.75199997
-0.49399999 0.42348912 0.55800003
-0.46900001 0.42348912 0.61699998
-0.50999999 0.42348912 0.428
-0.46399999 0.42348912 0.574
0.226 0.42348912 0.421
0.264 0.42348912 0.46200001
0.273 0.42348912 0.45899999
0.23199999 0.42348912 0.80000001
0.264 0.42348912 0.634
0.248 0.42348912 0.787
0.255 0.42348912 0.78899997
0.26100001 0.42348912 0.79900002
0.26800001 0.42348912 0.79799998
0.27399999 0.42348912 0.80400002
0.28200001 0.42348912 0.80000001
0.289 0.42348912 0.80000001
0.34400001 0.42348912 0.54500002
0.59399998 0.42348912 0.42699999
0.54400003 0.42348912 0.648
0.51200002 0.42348912 0.847
0.53500003 0.42348912 0.80000001
0.53399998 0.42348912 0.82700002
0.62900001 0.42348912 0.57300001
0.72100002 0.42348912 0.47099999
0.66799998 0.42348912 0.63700002
0.60500002 0.42348912 0.82300001
0.56400001 0.42348912 0.949
0.51700002 0.42348912 1.086
0.51200002 0.42348912 1.117
0.55199999 0.42348912 1.033
0.56 0.42348912 1.0319999
0.56900001 0.42348912 1.027
0.57099998 0.42348912 1.038
0.57800001 0.42348912 1.039
0.59100002 0.42348912 1.024
0.59799999 0.42348912 1.024
0.53899997 0.42348912 1.175
0.54299998 0.42348912 1.181
0.546 0.42348912 1.188
0.55400002 0.42348912 1.1849999
0.56099999 0.42348912 1.184
0.56199998 0.42348912 1.196
0.57300001 0.42348912 1.184
1.007 0.42348912 0.42399999
0.52999997 0.42348912 1.425
0.92900002 0.42348912 0.741
1.044 0.42348912 0.55400002
-0.66100001 0.42520368 0.69999999
-0.59100002 0.42520368 0.861
-0.5 0.42520368 0.861
-0.53399998 0.42520368 0.73100001
-0.486 0.42520368 0.85900003
-0.472 0.42520368 0.88099998
-0.46599999 0.42520368 0.87699997
-0.45899999 0.42520368 0.87400001
-0.45100001 0.42520368 0.87699997
-0.44499999 0.42520368 0.87400001
-0.44400001 0.42520368 0.85100001
-0.45199999 0.42520368 0.79699999
-0.46399999 0.42520368 0.72799999
-0.449 0.42520368 0.75199997
-0.49399999 0.42520368 0.55800003
-0.46900001 0.42520368 0.61699998
-0.50999999 0.42520368 0.428
-0.46399999 0.42520368 0.574
0.226 0.42520368 0.421
0.264 0.42520368 0.46200001
0.273 0.42520368 0.45899999
0.23199999 0.42520368 0.80000001
0.264 0.42520368 0.634
0.248 0.42520368 0.787
0.255 0.42520368 0.78899997
0.26100001 0.42520368 0.79900002
0.26800001 0.42520368 0.79799998
0.27399999 0.42520368 0.80400002
0.28200001 0.42520368 0.80000001
0.289 0.42520368 0.80000001
0.34400001 0.42520368 0.54500002
0.59399998 0.42520368 0.42699999
0.54400003 0.42520368 0.648
0.51200002 0.42520368 0.847
0.53500003 0.42520368 0.80000001
0.53399998 0.42520368 0.82700002
0.62900001 0.42520368 0.57300001
0.72100002 0.42520368 0.47099999
0.66799998 0.42520368 0.63700002
0.60500002 0.42520368 0.82300001
0.56400001 0.42520368 0.949
0.51700002 0.42520368 1.086
0.51200002 0.42520368 1.117
0.55199999 0.42520368 1.033
0.56 0.42520368 1.0319999
0.56900001 0.42520368 1.027
0.57099998 0.42520368 1.038
0.57800001 0.42520368 1.039
0.59100002 0.42520368 1.024
0.59799999 0.42520368 1.024
0.53899997 0.42520368 1.175
0.54299998 0.42520368 1.181
0.546 0.42520368 1.188
0.55400002 0.42520368 1.1849999
0.56099999 0.42520368 1.184
0.56199998 0.42520368 1.196
0.57300001 0.42520368 1.184
1.007 0.42520368 0.42399999
0.52999997 0.42520368 1.425
0.92900002 0.42520368 0.741
1.044 0.42520368 0.55400002
-0.66100001 0.42691821 0.69999999
-0.59100002 0.42691821 0.861
-0.5 0.42691821 0.861
-0.53399998 0.42691821 0.73100001
-0.486 0.42691821 0.85900003
-0.472 0.42691821 0.88099998
-0.46599999 0.42691821 0.87699997
-0.45899999 0.42691821 0.87400001
-0.45100001 0.42691821 0.87699997
-0.44499999 0.42691821 0.87400001
-0.44400001 0.42691821 0.85100001
-0.45199999 0.42691821 0.79699999
-0.46399999 0.42691821 0.72799999
-0.449 0.42691821 0.75199997
-0.49399999 0.42691821 0.55800003
-0.46900001 0.42691821 0.61699998
-0.50999999 0.42691821 0.428
-0.46399999 0.42691821 0.574
0.226 0.42691821 0.421
0.264 0.42691821 0.46200001
0.273 0.42691821 0.45899999
0.23199999 0.42691821 0.80000001
0.264 0.42691821 0.634
0.248 0.42691821 0.787
0.255 0.42691821 0.78899997
0.26100001 0.42691821 0.79900002
0.26800001 0.42691821 0.79799998
0.27399999 0.42691821 0.80400002
0.28200001 0.42691821 0.80000001
0.289 0.42691821 0.80000001
0.34400001 0.42691821 0.54500002
0.59399998 0.42691821 0.42699999
0.54400003 0.42691821 0.648
0.51200002 0.42691821 0.847
0.53500003 0.42691821 0.80000001
0.53399998 0.42691821 0.82700002
0.62900001 0.42691821 0.57300001
0.72100002 0.42691821 0.47099999
0.66799998 0.42691821 0.63700002
0.60500002 0.42691821 0.82300001
0.56400001 0.42691821 0.949
0.51700002 0.42691821 1.086
0.51200002 0.42691821 1.117
0.55199999 0.42691821 1.033
0.56 0.42691821 1.0319999
0.56900001 0.42691821 1.027
0.57099998 0.42691821 1.038
0.57800001 0.42691821 1.039
0.59100002 0.42691821 1.024
0.59799999 0.42691821 1.024
0.53899997 0.42691821 1.175
0.54299998 0.42691821 1.181
0.546 0.42691821 1.188
0.55400002 0.42691821 1.1849999
0.56099999 0.42691821 1.184
0.56199998 0.42691821 1.196
0.57300001 0.42691821 1.184
1.007 0.42691821 0.42399999
0.52999997 0.42691821 1.425
0.92900002 0.42691821 0.741
1.044 0.42691821 0.55400002
-0.66100001 0.42863271 0.69999999
-0.59100002 0.42863271 0.861
-0.5 0.42863271 0.861
-0.53399998 0.42863271 0.73100001
-0.486 0.42863271 0.85900003
-0.472 0.42863271 0.88099998
-0.46599999 0.42863271 0.87699997
-0.45899999 0.42863271 0.87400001
-0.45100001 0.42863271 0.87699997
-0.44499999 0.42863271 0.87400001
-0.44400001 0.42863271 0.85100001
-0.45199999 0.42863271 0.79699999
-0.46399999 0.42863271 0.72799999
-0.449 0.42863271 0.75199997
-0.49399999 0.42863271 0.55800003
-0.46900001 0.42863271 0.61699998
-0.50999999 0.42863271 0.428
-0.46399999 0.42863271 0.574
0.226 0.42863271 0.421
0.264 0.42863271 0.46200001
0.273 0.42863271 0.45899999
0.23199999 0.42863271 0.80000001
0.264 0.42863271 0.634
0.248 0.42863271 0.787
0.255 0.42863271 0.78899997
0.26100001 0.42863271 0.79900002
0.26800001 0.42863271 0.79799998
0.27399999 0.42863271 0.80400002
0.28200001 0.42863271 0.80000001
0.289 0.42863271 0.80000001
0.34400001 0.42863271 0.54500002
0.59399998 0.42863271 0.42699999
0.54400003 0.42863271 0.648
0.51200002 0.42863271 0.847
0.53500003 0.42863271 0.80000001
0.53399998 0.42863271 0.82700002
0.62900001 0.42863271 0.57300001
0.72100002 0.42863271 0.47099999
0.66799998 0.42863271 0.63700002
0.60500002 0.42863271 0.82300001
0.56400001 0.42863271 0.949
0.51700002 0.42863271 1.086
0.51200002 0.42863271 1.117
0.55199999 0.42863271 1.033
0.56 0.42863271 1.0319999
0.56900001 0.42863271 1.027
0.57099998 0.42863271 1.038
0.57800001 0.42863271 1.039
0.59100002 0.42863271 1.024
0.59799999 0.42863271 1.024
0.53899997 0.42863271 1.175
0.54299998 0.42863271 1.181
0.546 0.42863271 1.188
0.55400002 0.42863271 1.1849999
0.56099999 0.42863271 1.184
0.56199998 0.42863271 1.196
0.57300001 0.42863271 1.184
1.007 0.42863271 0.42399999
0.52999997 0.42863271 1.425
0.92900002 0.42863271 0.741
1.044 0.42863271 0.55400002
-0.49200001 0.43034726 1.085
-0.47600001 0.43034726 1.11
-0.47099999 0.43034726 1.1059999
-0.551 0.43034726 0.866
-0.57599998 0.43034726 0.54400003
-0.52899998 0.43034726 0.67000002
-0.53500003 0.43034726 0.59600002
-0.43700001 0.43034726 0.90200001
-0.47799999 0.43034726 0.73199999
-0.46900001 0.43034726 0.73699999
-0.46399999 0.43034726 0.72600001
-0.44400001 0.43034726 0.61900002
0.212 0.43034726 0.61000001
0.259 0.43034726 0.55800003
0.266 0.43034726 0.56699997
0.25 0.43034726 0.77499998
0.25600001 0.43034726 0.78500003
0.25999999 0.43034726 0.80299997
0.26800001 0.43034726 0.79900002
0.27500001 0.43034726 0.79900002
0.28099999 0.43034726 0.80400002
0.33500001 0.43034726 0.54900002
0.49900001 0.43034726 0.40000001
0.44299999 0.43034726 0.65399998
0.52200001 0.43034726 0.417
0.53100002 0.43034726 0.41999999
0.54000002 0.43034726 0.41999999
0.54799998 0.43034726 0.42399999
0.56199998 0.43034726 0.40900001
0.52100003 0.43034726 0.64200002
0.63 0.43034726 0.40200001
0.57599998 0.43034726 0.62800002
0.52499998 0.43034726 0.80800003
0.53100002 0.43034726 0.81300002
0.53600001 0.43034726 0.82200003
0.54400003 0.43034726 0.82099998
0.54699999 0.43034726 0.83399999
0.55599999 0.43034726 0.83099997
0.56300002 0.43034726 0.83099997
0.57099998 0.43034726 0.95099998
0.477 0.43034726 1.204
0.55199999 0.43034726 1.034
0.55599999 0.43034726 1.04
0.55299997 0.43034726 1.064
0.56800002 0.43034726 1.045
0.574 0.43034726 1.0470001
0.58200002 0.43034726 1.045
0.69199997 0.43034726 0.80900002
0.648 0.43034726 0.92699999
0.55500001 0.43034726 1.154
0.54799998 0.43034726 1.183
0.55599999 0.43034726 1.181
0.56300002 0.43034726 1.179
0.57200003 0.43034726 1.174
0.685 0.43034726 0.94700003
0.625 0.43034726 1.161
0.56699997 0.43034726 1.3559999
0.59799999 0.43034726 1.309
0.56199998 0.43034726 1.385
0.72600001 0.43034726 1.103
0.597 0.43034726 1.345
0.92900002 0.43034726 0.77499998
0.972 0.43034726 0.73299998
-0.49200001 0.43206179 1.085
-0.47600001 0.43206179 1.11
-0.47099999 0.43206179 1.1059999
-0.551 0.43206179 0.866
-0.57599998 0.43206179 0.54400003
-0.52899998 0.43206179 0.67000002
-0.53500003 0.43206179 0.59600002
-0.43700001 0.43206179 0.90200001
-0.47799999 0.43206179 0.73199999
-0.46900001 0.43206179 0.73699999
-0.46399999 0.43206179 0.72600001
-0.44400001 0.43206179 0.61900002
0.212 0.43206179 0.61000001
0.259 0.43206179 0.55800003
0.266 0.43206179 0.56699997
0.25 0.43206179 0.77499998
0.25600001 0.43206179 0.78500003
0.25999999 0.43206179 0.80299997
0.26800001 0.43206179 0.79900002
0.27500001 0.43206179 0.79900002
0.28099999 0.43206179 0.80400002
0.33500001 0.43206179 0.54900002
0.49900001 0.43206179 0.40000001
0.44299999 0.43206179 0.65399998
0.52200001 0.43206179 0.417
0.53100002 0.43206179 0.41999999
0.54000002 0.43206179 0.41999999
0.54799998 0.43206179 0.42399999
0.56199998 0.43206179 0.40900001
0.52100003 0.43206179 0.64200002
0.63 0.43206179 0.40200001
0.57599998 0.43206179 0.62800002
0.52499998 0.43206179 0.80800003
0.53100002 0.43206179 0.81300002
0.53600001 0.43206179 0.82200003
0.54400003 0.43206179 0.82099998
0.54699999 0.43206179 0.83399999
0.55599999 0.43206179 0.83099997
0.56300002 0.43206179 0.83099997
0.57099998 0.43206179 0.95099998
0.477 0.43206179 1.204
0.55199999 0.43206179 1.034
0.55599999 0.43206179 1.04
0.55299997 0.43206179 1.064
0.56800002 0.43206179 1.045
0.574 0.43206179 1.0470001
0.58200002 0.43206179 1.045
0.69199997 0.43206179 0.80900002
0.648 0.43206179 0.92699999
0.55500001 0.43206179 1.154
0.54799998 0.43206179 1.183
0.55599999 0.43206179 1.181
0.56300002 0.43206179 1.179
0.57200003 0.43206179 1.174
0.685 0.43206179 0.94700003
0.625 0.43206179 1.161
0.56699997 0.43206179 1.3559999
0.59799999 0.43206179 1.309
0.56199998 0.43206179 1.385
0.72600001 0.43206179 1.103
0.597 0.43206179 1.345
0.92900002 0.43206179 0.77499998
0.972 0.43206179 0.73299998
-0.49200001 0.43377632 1.085
-0.47600001 0.43377632 1.11
-0.47099999 0.43377632 1.1059999
-0.551 0.43377632 0.866
-0.57599998 0.43377632 0.54400003
-0.52899998 0.43377632 0.67000002
-0.53500003 0.43377632 0.59600002
-0.43700001 0.43377632 0.90200001
-0.47799999 0.43377632 0.73199999
-0.46900001 0.43377632 0.73699999
-0.46399999 0.43377632 0.72600001
-0.44400001 0.43377632 0.61900002
0.212 0.43377632 0.61000001
0.259 0.43377632 0.55800003
0.266 0.43377632 0.56699997
0.25 0.43377632 0.77499998
0.25600001 0.43377632 0.78500003
0.25999999 0.43377632 0.80299997
0.26800001 0.43377632 0.79900002
0.27500001 0.43377632 0.79900002
0.28099999 0.43377632 0.80400002
0.33500001 0.43377632 0.54900002
0.49900001 0.43377632 0.40000001
0.44299999 0.43377632 0.65399998
0.52200001 0.43377632 0.417
0.53100002 0.43377632 0.41999999
0.54000002 0.43377632 0.41999999
0.54799998 0.43377632 0.42399999
0.56199998 0.43377632 0.40900001
0.52100003 0.43377632 0.64200002
0.63 0.43377632 0.40200001
0.57599998 0.43377632 0.62800002
0.52499998 0.43377632 0.80800003
0.53100002 0.43377632 0.81300002
0.53600001 0.43377632 0.82200003
0.54400003 0.43377632 0.82099998
0.54699999 0.43377632 0.83399999
0.55599999 0.43377632 0.83099997
0.56300002 0.43377632 0.83099997
0.57099998 0.43377632 0.95099998
0.477 0.43377632 1.204
0.55199999 0.43377632 1.034
0.55599999 0.43377632 1.04
0.55299997 0.43377632 1.064
0.56800002 0.43377632 1.045
0.574 0.43377632 1.0470001
0.58200002 0.43377632 1.045
0.69199997 0.43377632 0.80900002
0.648 0.43377632 0.92699999
0.55500001 0.43377632 1.154
0.54799998 0.43377632 1.183
0.55599999 0.43377632 1.181
0.56300002 0.43377632 1.179
0.57200003 0.43377632 1.174
0.685 0.43377632 0.94700003
0.625 0.43377632 1.161
0.56699997 0.43377632 1.3559999
0.59799999 0.43377632 1.309
0.56199998 0.43377632 1.385
0.72600001 0.43377632 1.103
0.597 0.43377632 1.345
0.92900002 0.43377632 0.77499998
0.972 0.43377632 0.73299998
-0.49200001 0.43549085 1.085
-0.47600001 0.43549085 1.11
-0.47099999 0.43549085 1.1059999
-0.551 0.43549085 0.866
-0.57599998 0.43549085 0.54400003
-0.52899998 0.43549085 0.67000002
-0.53500003 0.43549085 0.59600002
-0.43700001 0.43549085 0.90200001
-0.47799999 0.43549085 0.73199999
-0.46900001 0.43549085 0.73699999
-0.46399999 0.43549085 0.72600001
-0.44400001 0.43549085 0.61900002
0.212 0.43549085 0.61000001
0.259 0.43549085 0.55800003
0.266 0.43549085 0.56699997
0.25 0.43549085 0.77499998
0.25600001 0.43549085 0.78500003
0.25999999 0.43549085 0.80299997
0.26800001 0.43549085 0.79900002
0.27500001 0.43549085 0.79900002
0.28099999 0.43549085 0.80400002
0.33500001 0.43549085 0.54900002
0.49900001 0.43549085 0.40000001
0.44299999 0.43549085 0.65399998
0.52200001 0.43549085 0.417
0.53100002 0.43549085 0.41999999
0.54000002 0.43549085 0.41999999
0.54799998 0.43549085 0.42399999
0.56199998 0.43549085 0.40900001
0.52100003 0.43549085 0.64200002
0.63 0.43549085 0.40200001
0.57599998 0.43549085 0.62800002
0.52499998 0.43549085 0.80800003
0.53100002 0.43549085 0.81300002
0.53600001 0.43549085 0.82200003
0.54400003 0.43549085 0.82099998
0.54699999 0.43549085 0.83399999
0.55599999 0.43549085 0.83099997
0.56300002 0.43549085 0.83099997
0.57099998 0.43549085 0.95099998
0.477 0.43549085 1.204
0.55199999 0.43549085 1.034
0.55599999 0.43549085 1.04
0.55299997 0.43549085 1.064
0.56800002 0.43549085 1.045
0.574 0.43549085 1.0470001
0.58200002 0.43549085 1.045
0.69199997 0.43549085 0.80900002
0.648 0.43549085 0.92699999
0.55500001 0.43549085 1.154
0.54799998 0.43549085 1.183
0.55599999 0.43549085 1.181
0.56300002 0.43549085 1.179
0.57200003 0.43549085 1.174
0.685 0.43549085 0.94700003
0.625 0.43549085 1.161
0.56699997 0.43549085 1.3559999
0.59799999 0.43549085 1.309
0.56199998 0.43549085 1.385
0.72600001 0.43549085 1.103
0.597 0.43549085 1.345
0.92900002 0.43549085 0.77499998
0.972 0.43549085 0.73299998
-0.49200001 0.43720537 1.085
-0.47600001 0.43720537 1.11
-0.47099999 0.43720537 1.1059999
-0.551 0.43720537 0.866
-0.57599998 0.43720537 0.54400003
-0.52899998 0.43720537 0.67000002
-0.53500003 0.43720537 0.59600002
-0.43700001 0.43720537 0.90200001
-0.47799999 0.43720537 0.73199999
-0.46900001 0.43720537 0.73699999
-0.46399999 0.43720537 0.72600001
-0.44400001 0.43720537 0.61900002
0.212 0.43720537 0.61000001
0.259 0.43720537 0.55800003
0.266 0.43720537 0.56699997
0.25 0.43720537 0.77499998
0.25600001 0.43720537 0.78500003
0.25999999 0.43720537 0.80299997
0.26800001 0.43720537 0.79900002
0.27500001 0.43720537 0.79900002
0.28099999 0.43720537 0.80400002
0.33500001 0.43720537 0.54900002
0.49900001 0.43720537 0.40000001
0.44299999 0.43720537 0.65399998
0.52200001 0.43720537 0.417
0.53100002 0.43720537 0.41999999
0.54000002 0.43720537 0.41999999
0.54799998 0.43720537 0.42399999
0.56199998 0.43720537 0.40900001
0.52100003 0.43720537 0.64200002
0.63 0.43720537 0.40200001
0.57599998 0.43720537 0.62800002
0.52499998 0.43720537 0.80800003
0.53100002 0.43720537 0.81300002
0.53600001 0.43720537 0.82200003
0.54400003 0.43720537 0.82099998
0.54699999 0.43720537 0.83399999
0.55599999 0.43720537 0.83099997
0.56300002 0.43720537 0.83099997
0.57099998 0.43720537 0.95099998
0.477 0.43720537 1.204
0.55199999 0.43720537 1.034
0.55599999 0.43720537 1.04
0.55299997 0.43720537 1.064
0.56800002 0.43720537 1.045
0.574 0.43720537 1.0470001
0.58200002 0.43720537 1.045
0.69199997 0.43720537 0.80900002
0.648 0.43720537 0.92699999
0.55500001 0.43720537 1.154
0.54799998 0.43720537 1.183
0.55599999 0.43720537 1.181
0.56300002 0.43720537 1.179
0.57200003 0.43720537 1.174
0.685 0.43720537 0.94700003
0.625 0.43720537 1.161
0.56699997 0.43720537 1.3559999
0.59799999 0.43720537 1.309
0.56199998 0.43720537 1.385
0.72600001 0.43720537 1.103
0.597 0.43720537 1.345
0.92900002 0.43720537 0.77499998
0.972 0.43720537 0.73299998
-0.49200001 0.4389199 1.085
-0.47600001 0.4389199 1.11
-0.47099999 0.4389199 1.1059999
-0.551 0.4389199 0.866
-0.57599998 0.4389199 0.54400003
-0.52899998 0.4389199 0.67000002
-0.53500003 0.4389199 0.59600002
-0.43700001 0.4389199 0.90200001
-0.47799999 0.4389199 0.73199999
-0.46900001 0.4389199 0.73699999
-0.46399999 0.4389199 0.72600001
-0.44400001 0.4389199 0.61900002
0.212 0.4389199 0.61000001
0.259 0.4389199 0.55800003
0.266 0.4389199 0.56699997
0.25 0.4389199 0.77499998
0.25600001 0.4389199 0.78500003
0.25999999 0.4389199 0.80299997
0.26800001 0.4389199 0.79900002
0.27500001 0.4389199 0.79900002
0.28099999 0.4389199 0.80400002
0.33500001 0.4389199 0.54900002
0.49900001 0.4389199 0.40000001
0.44299999 0.4389199 0.65399998
0.52200001 0.4389199 0.417
0.53100002 0.4389199 0.41999999
0.54000002 0.4389199 0.41999999
0.54799998 0.4389199 0.42399999
0.56199998 0.4389199 0.40900001
0.52100003 0.4389199 0.64200002
0.63 0.4389199 0.40200001
0.57599998 0.4389199 0.62800002
0.52499998 0.4389199 0.80800003
0.53100002 0.4389199 0.81300002
0.53600001 0.4389199 0.82200003
0.54400003 0.4389199 0.82099998
0.54699999 0.4389199 0.83399999
0.55599999 0.4389199 0.83099997
0.56300002 0.4389199 0.83099997
0.57099998 0.4389199 0.95099998
0.477 0.4389199 1.204
0.55199999 0.4389199 1.034
0.55599999 0.4389199 1.04
0.55299997 0.4389199 1.064
0.56800002 0.4389199 1.045
0.574 0.4389199 1.0470001
0.58200002 0.4389199 1.045
0.69199997 0.4389199 0.80900002
0.648 0.4389199 0.92699999
0.55500001 0.4389199 1.154
0.54799998 0.4389199 1.183
0.55599999 0.4389199 1.181
0.56300002 0.4389199 1.179
0.57200003 0.4389199 1.174
0.685 0.4389199 0.94700003
0.625 0.4389199 1.161
0.56699997 0.4389199 1.3559999
0.59799999 0.4389199 1.309
0.56199998 0.4389199 1.385
0.72600001 0.4389199 1.103
0.597 0.4389199 1.345
0.92900002 0.4389199 0.77499998
0.972 0.4389199 0.73299998
-0.49200001 0.44063449 1.085
-0.47600001 0.44063449 1.11
-0.47099999 0.44063449 1.1059999
-0.551 0.44063449 0.866
-0.57599998 0.44063449 0.54400003
-0.52899998 0.44063449 0.67000002
-0.53500003 0.44063449 0.59600002
-0.43700001 0.44063449 0.90200001
-0.47799999 0.44063449 0.73199999
-0.46900001 0.44063449 0.73699999
-0.46399999 0.44063449 0.72600001
-0.44400001 0.44063449 0.61900002
0.212 0.44063449 0.61000001
0.259 0.44063449 0.55800003
0.266 0.44063449 0.56699997
0.25 0.44063449 0.77499998
0.25600001 0.44063449 0.78500003
0.25999999 0.44063449 0.80299997
0.26800001 0.44063449 0.79900002
0.27500001 0.44063449 0.79900002
0.28099999 0.44063449 0.80400002
0.33500001 0.44063449 0.54900002
0.49900001 0.44063449 0.40000001
0.44299999 0.44063449 0.65399998
0.52200001 0.44063449 0.417
0.53100002 0.44063449 0.41999999
0.54000002 0.44063449 0.41999999
0.54799998 0.44063449 0.42399999
0.56199998 0.44063449 0.40900001
0.52100003 0.44063449 0.64200002
0.63 0.44063449 0.40200001
0.57599998 0.44063449 0.62800002
0.52499998 0.44063449 0.80800003
0.53100002 0.44063449 0.81300002
0.53600001 0.44063449 0.82200003
0.54400003 0.44063449 0.82099998
0.54699999 0.44063449 0.83399999
0.55599999 0.44063449 0.83099997
0.56300002 0.44063449 0.83099997
0.57099998 0.44063449 0.95099998
0.477 0.44063449 1.204
0.55199999 0.44063449 1.034
0.55599999 0.44063449 1.04
0.55299997 0.44063449 1.064
0.56800002 0.44063449 1.045
0.574 0.44063449 1.0470001
0.58200002 0.44063449 1.045
0.69199997 0.44063449 0.80900002
0.648 0.44063449 0.92699999
0.55500001 0.44063449 1.154
0.54799998 0.44063449 1.183
0.55599999 0.44063449 1.181
0.56300002 0.44063449 1.179
0.57200003 0.44063449 1.174
0.685 0.44063449 0.94700003
0.625 0.44063449 1.161
0.56699997 0.44063449 1.3559999
0.59799999 0.44063449 1.309
0.56199998 0.44063449 1.385
0.72600001 0.44063449 1.103
0.597 0.44063449 1.345
0.92900002 0.44063449 0.77499998
0.972 0.44063449 0.73299998
-0.49200001 0.44234899 1.085
-0.47600001 0.44234899 1.11
-0.47099999 0.44234899 1.1059999
-0.551 0.44234899 0.866
-0.57599998 0.44234899 0.54400003
-0.52899998 0.44234899 0.67000002
-0.53500003 0.44234899 0.59600002
-0.43700001 0.44234899 0.90200001
-0.47799999 0.44234899 0.73199999
-0.46900001 0.44234899 0.73699999
-0.46399999 0.44234899 0.72600001
-0.44400001 0.44234899 0.61900002
0.212 0.44234899 0.61000001
0.259 0.44234899 0.55800003
0.266 0.44234899 0.56699997
0.25 0.44234899 0.77499998
0.25600001 0.44234899 0.78500003
0.25999999 0.44234899 0.80299997
0.26800001 0.44234899 0.79900002
0.27500001 0.44234899 0.79900002
0.28099999 0.44234899 0.80400002
0.33500001 0.44234899 0.54900002
0.49900001 0.44234899 0.40000001
0.44299999 0.44234899 0.65399998
0.52200001 0.44234899 0.417
0.53100002 0.44234899 0.41999999
0.54000002 0.44234899 0.41999999
0.54799998 0.44234899 0.42399999
0.56199998 0.44234899 0.40900001
0.52100003 0.44234899 0.64200002
0.63 0.44234899 0.40200001
0.57599998 0.44234899 0.62800002
0.52499998 0.44234899 0.80800003
0.53100002 0.44234899 0.81300002
0.53600001 0.44234899 0.82200003
0.54400003 0.44234899 0.82099998
0.54699999 0.44234899 0.83399999
0.55599999 0.44234899 0.83099997
0.56300002 0.44234899 0.83099997
0.57099998 0.44234899 0.95099998
0.477 0.44234899 1.204
0.55199999 0.44234899 1.034
0.55599999 0.44234899 1.04
0.55299997 0.44234899 1.064
0.56800002 0.44234899 1.045
0.574 0.44234899 1.0470001
0.58200002 0.44234899 1.045
0.69199997 0.44234899 0.80900002
0.648 0.44234899 0.92699999
0.55500001 0.44234899 1.154
0.54799998 0.44234899 1.183
0.55599999 0.44234899 1.181
0.56300002 0.44234899 1.179
0.57200003 0.44234899 1.174
0.685 0.44234899 0.94700003
0.625 0.44234899 1.161
0.56699997 0.44234899 1.3559999
0.59799999 0.44234899 1.309
0.56199998 0.44234899 1.385
0.72600001 0.44234899 1.103
0.597 0.44234899 1.345
0.92900002 0.44234899 0.77499998
0.972 0.44234899 0.73299998
-0.49200001 0.44406348 1.085
-0.47600001 0.44406348 1.11
-0.47099999 0.44406348 1.1059999
-0.551 0.44406348 0.866
-0.57599998 0.44406348 0.54400003
-0.52899998 0.44406348 0.67000002
-0.53500003 0.44406348 0.59600002
-0.43700001 0.44406348 0.90200001
-0.47799999 0.44406348 0.73199999
-0.46900001 0.44406348 0.73699999
-0.46399999 0.44406348 0.72600001
-0.44400001 0.44406348 0.61900002
0.212 0.44406348 0.61000001
0.259 0.44406348 0.55800003
0.266 0.44406348 0.56699997
0.25 0.44406348 0.77499998
0.25600001 0.44406348 0.78500003
0.25999999 0.44406348 0.80299997
0.26800001 0.44406348 0.79900002
0.27500001 0.44406348 0.79900002
0.28099999 0.44406348 0.80400002
0.33500001 0.44406348 0.54900002
0.49900001 0.44406348 0.40000001
0.44299999 0.44406348 0.65399998
0.52200001 0.44406348 0.417
0.53100002 0.44406348 0.41999999
0.54000002 0.44406348 0.41999999
0.54799998 0.44406348 0.42399999
0.56199998 0.44406348 0.40900001
0.52100003 0.44406348 0.64200002
0.63 0.44406348 0.40200001
0.57599998 0.44406348 0.62800002
0.52499998 0.44406348 0.80800003
0.53100002 0.44406348 0.81300002
0.53600001 0.44406348 0.82200003
0.54400003 0.44406348 0.82099998
0.54699999 0.44406348 0.83399999
0.55599999 0.44406348 0.83099997
0.56300002 0.44406348 0.83099997
0.57099998 0.44406348 0.95099998
0.477 0.44406348 1.204
0.55199999 0.44406348 1.034
0.55599999 0.44406348 1.04
0.55299997 0.44406348 1.064
0.56800002 0.44406348 1.045
0.574 0.44406348 1.0470001
0.58200002 0.44406348 1.045
0.69199997 0.44406348 0.80900002
0.648 0.44406348 0.92699999
0.55500001 0.44406348 1.154
0.54799998 0.44406348 1.183
0.55599999 0.44406348 1.181
0.56300002 0.44406348 1.179
0.57200003 0.44406348 1.174
0.685 0.44406348 0.94700003
0.625 0.44406348 1.161
0.56699997 0.44406348 1.3559999
0.59799999 0.44406348 1.309
0.56199998 0.44406348 1.385
0.72600001 0.44406348 1.103
0.597 0.44406348 1.345
0.92900002 0.44406348 0.77499998
0.972 0.44406348 0.73299998
-0.49200001 0.44577801 1.085
-0.47600001 0.44577801 1.11
-0.47099999 0.44577801 1.1059999
-0.551 0.44577801 0.866
-0.57599998 0.44577801 0.54400003
-0.52899998 0.44577801 0.67000002
-0.53500003 0.44577801 0.59600002
-0.43700001 0.44577801 0.90200001
-0.47799999 0.44577801 0.73199999
-0.46900001 0.44577801 0.73699999
-0.46399999 0.44577801 0.72600001
-0.44400001 0.44577801 0.61900002
0.212 0.44577801 0.61000001
0.259 0.44577801 0.55800003
0.266 0.44577801 0.56699997
0.25 0.44577801 0.77499998
0.25600001 0.44577801 0.78500003
0.25999999 0.44577801 0.80299997
0.26800001 0.44577801 0.79900002
0.27500001 0.44577801 0.79900002
0.28099999 0.44577801 0.80400002
0.33500001 0.44577801 0.54900002
0.49900001 0.44577801 0.40000001
0.44299999 0.44577801 0.65399998
0.52200001 0.44577801 0.417
0.53100002 0.44577801 0.41999999
0.54000002 0.44577801 0.41999999
0.54799998 0.44577801 0.42399999
0.56199998 0.44577801 0.40900001
0.52100003 0.44577801 0.64200002
0.63 0.44577801 0.40200001
0.57599998 0.44577801 0.62800002
0.52499998 0.44577801 0.80800003
0.53100002 0.44577801 0.81300002
0.53600001 0.44577801 0.82200003
0.54400003 0.44577801 0.82099998
0.54699999 0.44577801 0.83399999
0.55599999 0.44577801 0.83099997
0.56300002 0.44577801 0.83099997
0.57099998 0.44577801 0.95099998
0.477 0.44577801 1.204
0.55199999 0.44577801 1.034
0.55599999 0.44577801 1.04
0.55299997 0.44577801 1.064
0.56800002 0.44577801 1.045
0.574 0.44577801 1.0470001
0.58200002 0.44577801 1.045
0.69199997 0.44577801 0.80900002
0.648 0.44577801 0.92699999
0.55500001 0.44577801 1.154
0.54799998 0.44577801 1.183
0.55599999 0.44577801 1.181
0.56300002 0.44577801 1.179
0.57200003 0.44577801 1.174
0.685 0.44577801 0.94700003
0.625 0.44577801 1.161
0.56699997 0.44577801 1.3559999
0.59799999 0.44577801 1.309
0.56199998 0.44577801 1.385
0.72600001 0.44577801 1.103
0.597 0.44577801 1.345
0.92900002 0.44577801 0.77499998
0.972 0.44577801 0.73299998
-0.49200001 0.44749257 1.085
-0.47600001 0.44749257 1.11
-0.47099999 0.44749257 1.1059999
-0.551 0.44749257 0.866
-0.57599998 0.44749257 0.54400003
-0.52899998 0.44749257 0.67000002
-0.53500003 0.44749257 0.59600002
-0.43700001 0.44749257 0.90200001
-0.47799999 0.44749257 0.73199999
-0.46900001 0.44749257 0.73699999
-0.46399999 0.44749257 0.72600001
-0.44400001 0.44749257 0.61900002
0.212 0.44749257 0.61000001
0.259 0.44749257 0.55800003
0.266 0.44749257 0.56699997
0.25 0.44749257 0.77499998
0.25600001 0.44749257 0.78500003
0.25999999 0.44749257 0.80299997
0.26800001 0.44749257 0.79900002
0.27500001 0.44749257 0.79900002
0.28099999 0.44749257 0.80400002
0.33500001 0.44749257 0.54900002
0.49900001 0.44749257 0.40000001
0.44299999 0.44749257 0.65399998
0.52200001 0.44749257 0.417
0.53100002 0.44749257 0.41999999
0.54000002 0.44749257 0.41999999
0.54799998 0.44749257 0.42399999
0.56199998 0.44749257 0.40900001
0.52100003 0.44749257 0.64200002
0.63 0.44749257 0.40200001
0.57599998 0.44749257 0.62800002
0.52499998 0.44749257 0.80800003
0.53100002 0.44749257 0.81300002
0.53600001 0.44749257 0.82200003
0.54400003 0.44749257 0.82099998
0.54699999 0.44749257 0.83399999
0.55599999 0.44749257 0.83099997
0.56300002 0.44749257 0.83099997
0.57099998 0.44749257 0.95099998
0.477 0.44749257 1.204
0.55199999 0.44749257 1.034
0.55599999 0.44749257 1.04
0.55299997 0.44749257 1.064
0.56800002 0.44749257 1.045
0.574 0.44749257 1.0470001
0.58200002 0.44749257 1.045
0.69199997 0.44749257 0.80900002
0.648 0.44749257 0.92699999
0.55500001 0.44749257 1.154
0.54799998 0.44749257 1.183
0.55599999 0.44749257 1.181
0.56300002 0.44749257 1.179
0.57200003 0.44749257 1.174
0.685 0.44749257 0.94700003
0.625 0.44749257 1.161
0.56699997 0.44749257 1.3559999
0.59799999 0.44749257 1.309
0.56199998 0.44749257 1.385
0.72600001 0.44749257 1.103
0.597 0.44749257 1.345
0.92900002 0.44749257 0.77499998
0.972 0.44749257 0.73299998
-0.49200001 0.44920707 1.085
-0.47600001 0.44920707 1.11
-0.47099999 0.44920707 1.1059999
-0.551 0.44920707 0.866
-0.57599998 0.44920707 0.54400003
-0.52899998 0.44920707 0.67000002
-0.53500003 0.44920707 0.59600002
-0.43700001 0.44920707 0.90200001
-0.47799999 0.44920707 0.73199999
-0.46900001 0.44920707 0.73699999
-0.46399999 0.44920707 0.72600001
-0.44400001 0.44920707 0.61900002
0.212 0.44920707 0.61000001
0.259 0.44920707 0.55800003
0.266 0.44920707 0.56699997
0.25 0.44920707 0.77499998
0.25600001 0.44920707 0.78500003
0.25999999 0.44920707 0.80299997
0.26800001 0.44920707 0.79900002
0.27500001 0.44920707 0.79900002
0.28099999 0.44920707 0.80400002
0.33500001 0.44920707 0.54900002
0.49900001 0.44920707 0.40000001
0.44299999 0.44920707 0.65399998
0.52200001 0.44920707 0.417
0.53100002 0.44920707 0.41999999
0.54000002 0.44920707 0.41999999
0.54799998 0.44920707 0.42399999
0.56199998 0.44920707 0.40900001
0.52100003 0.44920707 0.64200002
0.63 0.44920707 0.40200001
0.57599998 0.44920707 0.62800002
0.52499998 0.44920707 0.80800003
0.53100002 0.44920707 0.81300002
0.53600001 0.44920707 0.82200003
0.54400003 0.44920707 0.82099998
0.54699999 0.44920707 0.83399999
0.55599999 0.44920707 0.83099997
0.56300002 0.44920707 0.83099997
0.57099998 0.44920707 0.95099998
0.477 0.44920707 1.204
0.55199999 0.44920707 1.034
0.55599999 0.44920707 1.04
0.55299997 0.44920707 1.064
0.56800002 0.44920707 1.045
0.574 0.44920707 1.0470001
0.58200002 0.44920707 1.045
0.69199997 0.44920707 0.80900002
0.648 0.44920707 0.92699999
0.55500001 0.44920707 1.154
0.54799998 0.44920707 1.183
0.55599999 0.44920707 1.181
0.56300002 0.44920707 1.179
0.57200003 0.44920707 1.174
0.685 0.44920707 0.94700003
0.625 0.44920707 1.161
0.56699997 0.44920707 1.3559999
0.59799999 0.44920707 1.309
0.56199998 0.44920707 1.385
0.72600001 0.44920707 1.103
0.597 0.44920707 1.345
0.92900002 0.44920707 0.77499998
0.972 0.44920707 0.73299998
-0.49200001 0.4509216 1.085
-0.47600001 0.4509216 1.11
-0.47099999 0.4509216 1.1059999
-0.551 0.4509216 0.866
-0.57599998 0.4509216 0.54400003
-0.52899998 0.4509216 0.67000002
-0.53500003 0.4509216 0.59600002
-0.43700001 0.4509216 0.90200001
-0.47799999 0.4509216 0.73199999
-0.46900001 0.4509216 0.73699999
-0.46399999 0.4509216 0.72600001
-0.44400001 0.4509216 0.61900002
0.212 0.4509216 0.61000001
0.259 0.4509216 0.55800003
0.266 0.4509216 0.56699997
0.25 0.4509216 0.77499998
0.25600001 0.4509216 0.78500003
0.25999999 0.4509216 0.80299997
0.26800001 0.4509216 0.79900002
0.27500001 0.4509216 0.79900002
0.28099999 0.4509216 0.80400002
0.33500001 0.4509216 0.54900002
0.49900001 0.4509216 0.40000001
0.44299999 0.4509216 0.65399998
0.52200001 0.4509216 0.417
0.53100002 0.4509216 0.41999999
0.54000002 0.4509216 0.41999999
0.54799998 0.4509216 0.42399999
0.56199998 0.4509216 0.40900001
0.52100003 0.4509216 0.64200002
0.63 0.4509216 0.40200001
0.57599998 0.4509216 0.62800002
0.52499998 0.4509216 0.80800003
0.53100002 0.4509216 0.81300002
0.53600001 0.4509216 0.82200003
0.54400003 0.4509216 0.82099998
0.54699999 0.4509216 0.83399999
0.55599999 0.4509216 0.83099997
0.56300002 0.4509216 0.83099997
0.57099998 0.4509216 0.95099998
0.477 0.4509216 1.204
0.55199999 0.4509216 1.034
0.55599999 0.4509216 1.04
0.55299997 0.4509216 1.064
0.56800002 0.4509216 1.045
0.574 0.4509216 1.0470001
0.58200002 0.4509216 1.045
0.69199997 0.4509216 0.80900002
0.648 0.4509216 0.92699999
0.55500001 0.4509216 1.154
0.54799998 0.4509216 1.183
0.55599999 0.4509216 1.181
0.56300002 0.4509216 1.179
0.57200003 0.4509216 1.174
0.685 0.4509216 0.94700003
0.625 0.4509216 1.161
0.56699997 0.4509216 1.3559999
0.59799999 0.4509216 1.309
0.56199998 0.4509216 1.385
0.72600001 0.4509216 1.103
0.597 0.4509216 1.345
0.92900002 0.4509216 0.77499998
0.972 0.4509216 0.73299998
-0.53399998 0.45263615 0.97100002
-0.48300001 0.45263615 1.09
-0.46900001 0.45263615 1.1109999
-0.461 0.45263615 1.117
-0.454 0.45263615 0.84200001
-0.45500001 0.45263615 0.787
0.186 0.45263615 0.54799998
0.18700001 0.45263615 0.62199998
0.176 0.45263615 0.79400003
0.184 0.45263615 0.78399998
0.191 0.45263615 0.78899997
0.197 0.45263615 0.79900002
0.205 0.45263615 0.792
0.20999999 0.45263615 0.80500001
0.26899999 0.45263615 0.60000002
0.26300001 0.45263615 0.829
0.33000001 0.45263615 0.477
0.40599999 0.45263615 0.639
0.38800001 0.45263615 0.75400001
0.38600001 0.45263615 0.79299998
0.398 0.45263615 0.77200001
0.403 0.45263615 0.78399998
0.40799999 0.45263615 0.79299998
0.41499999 0.45263615 0.79699999
0.42199999 0.45263615 0.79799998
0.505 0.45263615 0.51499999
0.53799999 0.45263615 0.426
0.49599999 0.45263615 0.61199999
0.55299997 0.45263615 0.43900001
0.51700002 0.45263615 0.65600002
0.63300002 0.45263615 0.42300001
0.58099997 0.45263615 0.63700002
0.63 0.45263615 0.51599997
0.54400003 0.45263615 0.79799998
0.56099999 0.45263615 0.77100003
0.56599998 0.45263615 0.77999997
0.72100002 0.45263615 0.44600001
0.634 0.45263615 0.70499998
0.71499997 0.45263615 0.51200002
0.72500002 0.45263615 0.50999999
0.639 0.45263615 0.75599998
0.77499998 0.45263615 0.433
0.69099998 0.45263615 0.66900003
0.546 0.45263615 1.049
0.57800001 0.45263615 0.98699999
0.56900001 0.45263615 1.026
0.57599998 0.45263615 1.026
0.551 0.45263615 1.101
0.58099997 0.45263615 1.048
0.69 0.45263615 0.81300002
0.90200001 0.45263615 0.52999997
0.59799999 0.45263615 1.201
0.83999997 0.45263615 0.73299998
0.479 0.45263615 1.461
0.62300003 0.45263615 1.2029999
-0.53399998 0.45435071 0.97100002
-0.48300001 0.45435071 1.09
-0.46900001 0.45435071 1.1109999
-0.461 0.45435071 1.117
-0.454 0.45435071 0.84200001
-0.45500001 0.45435071 0.787
0.186 0.45435071 0.54799998
0.18700001 0.45435071 0.62199998
0.176 0.45435071 0.79400003
0.184 0.45435071 0.78399998
0.191 0.45435071 0.78899997
0.197 0.45435071 0.79900002
0.205 0.45435071 0.792
0.20999999 0.45435071 0.80500001
0.26899999 0.45435071 0.60000002
0.26300001 0.45435071 0.829
0.33000001 0.45435071 0.477
0.40599999 0.45435071 0.639
0.38800001 0.45435071 0.75400001
0.38600001 0.45435071 0.79299998
0.398 0.45435071 0.77200001
0.403 0.45435071 0.78399998
0.40799999 0.45435071 0.79299998
0.41499999 0.45435071 0.79699999
0.42199999 0.45435071 0.79799998
0.505 0.45435071 0.51499999
0.53799999 0.45435071 0.426
0.49599999 0.45435071 0.61199999
0.55299997 0.45435071 0.43900001
0.51700002 0.45435071 0.65600002
0.63300002 0.45435071 0.42300001
0.58099997 0.45435071 0.63700002
0.63 0.45435071 0.51599997
0.54400003 0.45435071 0.79799998
0.56099999 0.45435071 0.77100003
0.56599998 0.45435071 0.77999997
0.72100002 0.45435071 0.44600001
0.634 0.45435071 0.70499998
0.71499997 0.45435071 0.51200002
0.72500002 0.45435071 0.50999999
0.639 0.45435071 0.75599998
0.77499998 0.45435071 0.433
0.69099998 0.45435071 0.66900003
0.546 0.45435071 1.049
0.57800001 0.45435071 0.98699999
0.56900001 0.45435071 1.026
0.57599998 0.45435071 1.026
0.551 0.45435071 1.101
0.58099997 0.45435071 1.048
0.69 0.45435071 0.81300002
0.90200001 0.45435071 0.52999997
0.59799999 0.45435071 1.201
0.83999997 0.45435071 0.73299998
0.479 0.45435071 1.461
0.62300003 0.45435071 1.2029999
-0.53399998 0.45606524 0.97100002
-0.48300001 0.45606524 1.09
-0.46900001 0.45606524 1.1109999
-0.461 0.45606524 1.117
-0.454 0.45606524 0.84200001
-0.45500001 0.45606524 0.787
0.186 0.45606524 0.54799998
0.18700001 0.45606524 0.62199998
0.176 0.45606524 0.79400003
0.184 0.45606524 0.78399998
0.191 0.45606524 0.78899997
0.197 0.45606524 0.79900002
0.205 0.45606524 0.792
0.20999999 0.45606524 0.80500001
0.26899999 0.45606524 0.60000002
0.26300001 0.45606524 0.829
0.33000001 0.45606524 0.477
0.40599999 0.45606524 0.639
0.38800001 0.45606524 0.75400001
0.38600001 0.45606524 0.79299998
0.398 0.45606524 0.77200001
0.403 0.45606524 0.78399998
0.40799999 0.45606524 0.79299998
0.41499999 0.45606524 0.79699999
0.42199999 0.45606524 0.79799998
0.505 0.45606524 0.51499999
0.53799999 0.45606524 0.426
0.49599999 0.45606524 0.61199999
0.55299997 0.45606524 0.43900001
0.51700002 0.45606524 0.65600002
0.63300002 0.45606524 0.42300001
0.58099997 0.45606524 0.63700002
0.63 0.45606524 0.51599997
0.54400003 0.45606524 0.79799998
0.56099999 0.45606524 0.77100003
0.56599998 0.45606524 0.77999997
0.72100002 0.45606524 0.44600001
0.634 0.45606524 0.70499998
0.71499997 0.45606524 0.51200002
0.72500002 0.45606524 0.50999999
0.639 0.45606524 0.75599998
0.77499998 0.45606524 0.433
0.69099998 0.45606524 0.66900003
0.546 0.45606524 1.049
0.57800001 0.45606524 0.98699999
0.56900001 0.45606524 1.026
0.57599998 0.45606524 1.026
0.551 0.45606524 1.101
0.58099997 0.45606524 1.048
0.69 0.45606524 0.81300002
0.90200001 0.45606524 0.52999997
0.59799999 0.45606524 1.201
0.83999997 0.45606524 0.73299998
0.479 0.45606524 1.461
0.62300003 0.45606524 1.2029999
-0.53399998 0.45777974 0.97100002
-0.48300001 0.45777974 1.09
-0.46900001 0.45777974 1.1109999
-0.461 0.45777974 1.117
-0.454 0.45777974 0.84200001
-0.45500001 0.45777974 0.787
0.186 0.45777974 0.54799998
0.18700001 0.45777974 0.62199998
0.176 0.45777974 0.79400003
0.184 0.45777974 0.78399998
0.191 0.45777974 0.78899997
0.197 0.45777974 0.79900002
0.205 0.45777974 0.792
0.20999999 0.45777974 0.80500001
0.26899999 0.45777974 0.60000002
0.26300001 0.45777974 0.829
0.33000001 0.45777974 0.477
0.40599999 0.45777974 0.639
0.38800001 0.45777974 0.75400001
0.38600001 0.45777974 0.79299998
0.398 0.45777974 0.77200001
0.403 0.45777974 0.78399998
0.40799999 0.45777974 0.79299998
0.41499999 0.45777974 0.79699999
0.42199999 0.45777974 0.79799998
0.505 0.45777974 0.51499999
0.53799999 0.45777974 0.426
0.49599999 0.45777974 0.61199999
0.55299997 0.45777974 0.43900001
0.51700002 0.45777974 0.65600002
0.63300002 0.45777974 0.42300001
0.58099997 0.45777974 0.63700002
0.63 0.45777974 0.51599997
0.54400003 0.45777974 0.79799998
0.56099999 0.45777974 0.77100003
0.56599998 0.45777974 0.77999997
0.72100002 0.45777974 0.44600001
0.634 0.45777974 0.70499998
0.71499997 0.45777974 0.51200002
0.72500002 0.45777974 0.50999999
0.639 0.45777974 0.75599998
0.77499998 0.45777974 0.433
0.69099998 0.45777974 0.66900003
0.546 0.45777974 1.049
0.57800001 0.45777974 0.98699999
0.56900001 0.45777974 1.026
0.57599998 0.45777974 1.026
0.551 0.45777974 1.101
0.58099997 0.45777974 1.048
0.69 0.45777974 0.81300002
0.90200001 0.45777974 0.52999997
0.59799999 0.45777974 1.201
0.83999997 0.45777974 0.73299998
0.479 0.45777974 1.461
0.62300003 0.45777974 1.2029999
-0.53399998 0.45949429 0.97100002
-0.48300001 0.45949429 1.09
-0.46900001 0.45949429 1.1109999
-0.461 0.45949429 1.117
-0.454 0.45949429 0.84200001
-0.45500001 0.45949429 0.787
0.186 0.45949429 0.54799998
0.18700001 0.45949429 0.62199998
0.176 0.45949429 0.79400003
0.184 0.45949429 0.78399998
0.191 0.45949429 0.78899997
0.197 0.45949429 0.79900002
0.205 0.45949429 0.792
0.20999999 0.45949429 0.80500001
0.26899999 0.45949429 0.60000002
0.26300001 0.45949429 0.829
0.33000001 0.45949429 0.477
0.40599999 0.45949429 0.639
0.38800001 0.45949429 0.75400001
0.38600001 0.45949429 0.79299998
0.398 0.45949429 0.77200001
0.403 0.45949429 0.78399998
0.40799999 0.45949429 0.79299998
0.41499999 0.45949429 0.79699999
0.42199999 0.45949429 0.79799998
0.505 0.45949429 0.51499999
0.53799999 0.45949429 0.426
0.49599999 0.45949429 0.61199999
0.55299997 0.45949429 0.43900001
0.51700002 0.45949429 0.65600002
0.63300002 0.45949429 0.42300001
0.58099997 0.45949429 0.63700002
0.63 0.45949429 0.51599997
0.54400003 0.45949429 0.79799998
0.56099999 0.45949429 0.77100003
0.56599998 0.45949429 0.77999997
0.72100002 0.45949429 0.44600001
0.634 0.45949429 0.70499998
0.71499997 0.45949429 0.51200002
0.72500002 0.45949429 0.50999999
0.639 0.45949429 0.75599998
0.77499998 0.45949429 0.433
0.69099998 0.45949429 0.66900003
0.546 0.45949429 1.049
0.57800001 0.45949429 0.98699999
0.56900001 0.45949429 1.026
0.57599998 0.45949429 1.026
0.551 0.45949429 1.101
0.58099997 0.45949429 1.048
0.69 0.45949429 0.81300002
0.90200001 0.45949429 0.52999997
0.59799999 0.45949429 1.201
0.83999997 0.45949429 0.73299998
0.479 0.45949429 1.461
0.62300003 0.45949429 1.2029999
-0.53399998 0.46120882 0.97100002
-0.48300001 0.46120882 1.09
-0.46900001 0.46120882 1.1109999
-0.461 0.46120882 1.117
-0.454 0.46120882 0.84200001
-0.45500001 0.46120882 0.787
0.186 0.46120882 0.54799998
0.18700001 0.46120882 0.62199998
0.176 0.46120882 0.79400003
0.184 0.46120882 0.78399998
0.191 0.46120882 0.78899997
0.197 0.46120882 0.79900002
0.205 0.46120882 0.792
0.20999999 0.46120882 0.80500001
0.26899999 0.46120882 0.60000002
0.26300001 0.46120882 0.829
0.33000001 0.46120882 0.477
0.40599999 0.46120882 0.639
0.38800001 0.46120882 0.75400001
0.38600001 0.46120882 0.79299998
0.398 0.46120882 0.77200001
0.403 0.46120882 0.78399998
0.40799999 0.46120882 0.79299998
0.41499999 0.46120882 0.79699999
0.42199999 0.46120882 0.79799998
0.505 0.46120882 0.51499999
0.53799999 0.46120882 0.426
0.49599999 0.46120882 0.61199999
0.55299997 0.46120882 0.43900001
0.51700002 0.46120882 0.65600002
0.63300002 0.46120882 0.42300001
0.58099997 0.46120882 0.63700002
0.63 0.46120882 0.51599997
0.54400003 0.46120882 0.79799998
0.56099999 0.46120882 0.77100003
0.56599998 0.46120882 0.77999997
0.72100002 0.46120882 0.44600001
0.634 0.46120882 0.70499998
0.71499997 0.46120882 0.51200002
0.72500002 0.46120882 0.50999999
0.639 0.46120882 0.75599998
0.77499998 0.46120882 0.433
0.69099998 0.46120882 0.66900003
0.546 0.46120882 1.049
0.57800001 0.46120882 0.98699999
0.56900001 0.46120882 1.026
0.57599998 0.46120882 1.026
0.551 0.46120882 1.101
0.58099997 0.46120882 1.048
0.69 0.46120882 0.81300002
0.90200001 0.46120882 0.52999997
0.59799999 0.46120882 1.201
0.83999997 0.46120882 0.73299998
0.479 0.46120882 1.461
0.62300003 0.46120882 1.2029999
-0.484 0.46292335 0.79100001
-0.46599999 0.46292335 0.82700002
-0.45699999 0.46292335 0.833
-0.449 0.46292335 0.833
-0.44400001 0.46292335 0.82499999
-0.442 0.46292335 0.80500001
-0.42899999 0.46292335 0.82499999
-0.42300001 0.46292335 0.82099998
-0.40799999 0.46292335 0.63200003
-0.43799999 0.46292335 0.465
-0.336 0.46292335 0.884
