# .PCD v0.7 - Point Cloud Data file format
VERSION 0.7
FIELDS x y z
SIZE 4 4 4
TYPE F F F
COUNT 1 1 1
WIDTH 1740
HEIGHT 1
VIEWPOINT 0 0 0 1 0 0 0
POINTS 1740
DATA ascii
0.99849999 0.95800018 0.417
1.0224999 0.95800018 0.41800001
0.96949995 0.96100044 0.36700001
0.99849999 0.96100044 0.417
1.0224999 0.96100044 0.41800001
0.96949995 0.96399879 0.36700001
0.99849999 0.96399879 0.417
1.0224999 0.96399879 0.41800001
0.96949995 0.96699905 0.36700001
0.99849999 0.96699905 0.417
1.0224999 0.96699905 0.41800001
0.96949995 0.96999931 0.36700001
0.99849999 0.96999931 0.417
1.0224999 0.96999931 0.41800001
0.96949995 0.97299957 0.36700001
0.99849999 0.97299957 0.417
1.0224999 0.97299957 0.41800001
0.96949995 0.97599983 0.36700001
0.99849999 0.97599983 0.417
1.0224999 0.97599983 0.41800001
0.99849999 0.97900009 0.417
1.0224999 0.97900009 0.41800001
0.98949993 0.98200035 0.412
1.0304999 0.98200035 0.38699999
0.98949993 0.98500061 0.412
1.0304999 0.98500061 0.38699999
0.98949993 0.98799896 0.412
1.0304999 0.98799896 0.38699999
0.98949993 0.99099922 0.412
1.0304999 0.99099922 0.38699999
0.98949993 0.99399948 0.412
1.0304999 0.99399948 0.38699999
0.98949993 0.99699974 0.412
1.0304999 0.99699974 0.38699999
0.98949993 1 0.412
1.0304999 1 0.38699999
0.98949993 1.0030003 0.412
1.0304999 1.0030003 0.38699999
0.98949993 1.0060005 0.412
1.0304999 1.0060005 0.38699999
0.98949993 1.0089989 0.412
0.98949993 1.0119991 0.412
0.98949993 1.0149994 0.412
1.0144999 1.0869999 0.37200001
1.0165 1.0900002 0.34999999
1.0144999 1.0900002 0.37200001
1.0165 1.0930004 0.34999999
1.0144999 1.0930004 0.37200001
1.0165 1.0960007 0.34999999
1.0144999 1.0960007 0.37200001
1.0165 1.098999 0.34999999
1.0144999 1.098999 0.37200001
1.0165 1.1019993 0.34999999
1.0144999 1.1019993 0.37200001
1.0165 1.1049995 0.34999999
1.0144999 1.1049995 0.37200001
1.0165 1.1079998 0.34999999
1.0144999 1.1079998 0.37200001
1.0165 1.1110001 0.34999999
1.0144999 1.1110001 0.37200001
1.0165 1.1140003 0.34999999
1.0144999 1.1140003 0.37200001
1.0165 1.1170006 0.34999999
1.0144999 1.1170006 0.37200001
1.0144999 1.1199989 0.37200001
1.0195 0.93849993 0.50199997
1.0195 0.94149995 0.50199997
1.0195 0.94449997 0.50199997
1.0195 0.94749999 0.50199997
1.0195 0.95050001 0.50199997
1.0195 0.95350003 0.50199997
0.99450004 0.95650005 0.52200001
1.0015 0.95650005 0.52899998
0.99450004 0.95949984 0.52200001
1.0015 0.95949984 0.52899998
0.99450004 0.96249986 0.52200001
1.0015 0.96249986 0.52899998
0.99450004 0.96549988 0.52200001
1.0015 0.96549988 0.52899998
0.99450004 0.9684999 0.52200001
1.0015 0.9684999 0.52899998
0.99450004 0.97149992 0.52200001
1.0015 0.97149992 0.52899998
0.99450004 0.97449994 0.52200001
1.0015 0.97449994 0.52899998
0.99450004 0.97749996 0.52200001
1.0015 0.97749996 0.52899998
0.99450004 0.98049998 0.52200001
1.0015 0.98049998 0.52899998
0.99450004 0.9835 0.52200001
1.0015 0.9835 0.52899998
0.99450004 0.98650002 0.52200001
1.0015 0.98650002 0.52899998
0.99450004 0.98950005 0.52200001
1.0015 0.98950005 0.52899998
1.0125 0.99250007 0.495
1.0125 0.99549985 0.495
1.0125 0.99849987 0.495
1.0125 1.0014999 0.495
1.0125 1.0044999 0.495
1.0125 1.0074999 0.495
1.0125 1.0105 0.495
1.0125 1.0135 0.495
1.0125 1.0165 0.495
1.0125 1.0195 0.495
1.0125 1.0225 0.495
1.0125 1.0255001 0.495
0.9805001 1.0284998 0.48899999
0.98950005 1.0284998 0.493
0.99450004 1.0284998 0.505
0.99950004 1.0284998 0.514
1.0025001 1.0284998 0.528
1.0125 1.0284998 0.53100002
0.9805001 1.0314999 0.48899999
0.98950005 1.0314999 0.493
0.99450004 1.0314999 0.505
0.99950004 1.0314999 0.514
1.0025001 1.0314999 0.528
1.0125 1.0314999 0.53100002
0.9805001 1.0344999 0.48899999
0.98950005 1.0344999 0.493
0.99450004 1.0344999 0.505
0.99950004 1.0344999 0.514
1.0025001 1.0344999 0.528
1.0125 1.0344999 0.53100002
0.9805001 1.0374999 0.48899999
0.98950005 1.0374999 0.493
0.99450004 1.0374999 0.505
0.99950004 1.0374999 0.514
1.0025001 1.0374999 0.528
1.0125 1.0374999 0.53100002
0.9805001 1.0404999 0.48899999
0.98950005 1.0404999 0.493
0.99450004 1.0404999 0.505
0.99950004 1.0404999 0.514
1.0025001 1.0404999 0.528
1.0125 1.0404999 0.53100002
0.9805001 1.0434999 0.48899999
0.98950005 1.0434999 0.493
0.99450004 1.0434999 0.505
0.99950004 1.0434999 0.514
1.0025001 1.0434999 0.528
1.0125 1.0434999 0.53100002
0.9805001 1.0465 0.48899999
0.98950005 1.0465 0.493
0.99450004 1.0465 0.505
0.99950004 1.0465 0.514
1.0025001 1.0465 0.528
1.0125 1.0465 0.53100002
0.9805001 1.0495 0.48899999
0.98950005 1.0495 0.493
0.99450004 1.0495 0.505
0.99950004 1.0495 0.514
1.0025001 1.0495 0.528
1.0125 1.0495 0.53100002
0.9805001 1.0525 0.48899999
0.98950005 1.0525 0.493
0.99450004 1.0525 0.505
0.99950004 1.0525 0.514
1.0025001 1.0525 0.528
1.0125 1.0525 0.53100002
0.99550009 1.0555 0.484
0.99650002 1.0555 0.50099999
0.99250007 1.0555 0.52499998
1.0075001 1.0555 0.52100003
1.0135001 1.0555 0.52899998
0.99550009 1.0585001 0.484
0.99650002 1.0585001 0.50099999
0.99250007 1.0585001 0.52499998
1.0075001 1.0585001 0.52100003
1.0135001 1.0585001 0.52899998
0.99550009 1.0614998 0.484
0.99650002 1.0614998 0.50099999
0.99250007 1.0614998 0.52499998
1.0075001 1.0614998 0.52100003
1.0135001 1.0614998 0.52899998
1.02 0.96700096 0.95999998
1.0109999 0.96700096 0.98799998
1.0109999 0.96700096 1.001
1.0139999 0.96700096 1.01
1.022 0.96700096 1.011
1.02 0.97000122 0.95999998
1.0109999 0.97000122 0.98799998
1.0109999 0.97000122 1.001
1.0139999 0.97000122 1.01
1.022 0.97000122 1.011
1.02 0.97299957 0.95999998
1.0109999 0.97299957 0.98799998
1.0109999 0.97299957 1.001
1.0139999 0.97299957 1.01
1.022 0.97299957 1.011
1.02 0.97599983 0.95999998
1.0109999 0.97599983 0.98799998
1.0109999 0.97599983 1.001
1.0139999 0.97599983 1.01
1.022 0.97599983 1.011
1.02 0.97900009 0.95999998
1.0109999 0.97900009 0.98799998
1.0109999 0.97900009 1.001
1.0139999 0.97900009 1.01
1.022 0.97900009 1.011
1.02 0.98200035 0.95999998
1.0109999 0.98200035 0.98799998
1.0109999 0.98200035 1.001
1.0139999 0.98200035 1.01
1.022 0.98200035 1.011
1.02 0.98500061 0.95999998
1.0109999 0.98500061 0.98799998
1.0109999 0.98500061 1.001
1.0139999 0.98500061 1.01
1.022 0.98500061 1.011
1.02 0.98800087 0.95999998
1.0109999 0.98800087 0.98799998
1.0109999 0.98800087 1.001
1.0139999 0.98800087 1.01
1.022 0.98800087 1.011
1.02 0.99100113 0.95999998
1.0109999 0.99100113 0.98799998
1.0109999 0.99100113 1.001
1.0139999 0.99100113 1.01
1.022 0.99100113 1.011
1.02 0.99399948 0.95999998
1.0109999 0.99399948 0.98799998
1.0109999 0.99399948 1.001
1.0139999 0.99399948 1.01
1.022 0.99399948 1.011
1.02 0.99699974 0.95999998
1.0109999 0.99699974 0.98799998
1.0109999 0.99699974 1.001
1.0139999 0.99699974 1.01
1.022 0.99699974 1.011
1.02 1 0.95999998
1.0109999 1 0.98799998
1.0109999 1 1.001
1.0139999 1 1.01
1.022 1 1.011
0.97299999 1.0030003 1.02
1.01 1.0030003 0.97500002
1.005 1.0030003 0.99699998
1.013 1.0030003 0.99800003
1.022 1.0030003 0.99800003
0.97299999 1.0060005 1.02
1.01 1.0060005 0.97500002
1.005 1.0060005 0.99699998
1.013 1.0060005 0.99800003
1.022 1.0060005 0.99800003
0.97299999 1.0090008 1.02
1.01 1.0090008 0.97500002
1.005 1.0090008 0.99699998
1.013 1.0090008 0.99800003
1.022 1.0090008 0.99800003
0.97299999 1.012001 1.02
1.01 1.012001 0.97500002
1.005 1.012001 0.99699998
1.013 1.012001 0.99800003
1.022 1.012001 0.99800003
0.97299999 1.0149994 1.02
1.01 1.0149994 0.97500002
1.005 1.0149994 0.99699998
1.013 1.0149994 0.99800003
1.022 1.0149994 0.99800003
0.97299999 1.0179996 1.02
1.01 1.0179996 0.97500002
1.005 1.0179996 0.99699998
1.013 1.0179996 0.99800003
1.022 1.0179996 0.99800003
0.97299999 1.0209999 1.02
1.01 1.0209999 0.97500002
1.005 1.0209999 0.99699998
1.013 1.0209999 0.99800003
1.022 1.0209999 0.99800003
0.97299999 1.0240002 1.02
1.01 1.0240002 0.97500002
1.005 1.0240002 0.99699998
1.013 1.0240002 0.99800003
1.022 1.0240002 0.99800003
1.007 1.0270004 0.96600002
1.017 1.0270004 0.99199998
1.027 1.0270004 0.99000001
1.007 1.0300007 0.96600002
1.017 1.0300007 0.99199998
1.027 1.0300007 0.99000001
1.007 1.0330009 0.96600002
1.017 1.0330009 0.99199998
1.027 1.0330009 0.99000001
1.0145 0.95499992 0.88099998
1.0195 0.95499992 0.875
1.0275 0.95499992 0.88200003
1.0145 0.95800018 0.88099998
1.0195 0.95800018 0.875
1.0275 0.95800018 0.88200003
1.0145 0.96100044 0.88099998
1.0195 0.96100044 0.875
1.0275 0.96100044 0.88200003
1.0145 0.96399975 0.88099998
1.0195 0.96399975 0.875
1.0275 0.96399975 0.88200003
1.0145 0.96700001 0.88099998
1.0195 0.96700001 0.875
1.0275 0.96700001 0.88200003
1.0145 0.97000027 0.88099998
1.0195 0.97000027 0.875
1.0275 0.97000027 0.88200003
1.0145 0.97299957 0.88099998
1.0195 0.97299957 0.875
1.0275 0.97299957 0.88200003
1.0145 0.97599983 0.88099998
1.0195 0.97599983 0.875
1.0275 0.97599983 0.88200003
1.0145 0.97900009 0.88099998
1.0195 0.97900009 0.875
1.0275 0.97900009 0.88200003
1.0145 0.98200035 0.88099998
1.0195 0.98200035 0.875
1.0275 0.98200035 0.88200003
1.0145 0.98499966 0.88099998
1.0195 0.98499966 0.875
1.0275 0.98499966 0.88200003
1.0145 0.98799992 0.88099998
1.0195 0.98799992 0.875
1.0275 0.98799992 0.88200003
0.97249997 0.99100018 0.88099998
1.0045 0.99100018 0.903
1.0115 0.99100018 0.90100002
1.0175 0.99100018 0.898
1.0275 0.99100018 0.87900001
0.97249997 0.99400043 0.88099998
1.0045 0.99400043 0.903
1.0115 0.99400043 0.90100002
1.0175 0.99400043 0.898
1.0275 0.99400043 0.87900001
0.97249997 0.99699974 0.88099998
1.0045 0.99699974 0.903
1.0115 0.99699974 0.90100002
1.0175 0.99699974 0.898
1.0275 0.99699974 0.87900001
0.97249997 1 0.88099998
1.0045 1 0.903
1.0115 1 0.90100002
1.0175 1 0.898
1.0275 1 0.87900001
0.97249997 1.0030003 0.88099998
1.0045 1.0030003 0.903
1.0115 1.0030003 0.90100002
1.0175 1.0030003 0.898
1.0275 1.0030003 0.87900001
0.97249997 1.0059996 0.88099998
1.0045 1.0059996 0.903
1.0115 1.0059996 0.90100002
1.0175 1.0059996 0.898
1.0275 1.0059996 0.87900001
0.97249997 1.0089998 0.88099998
1.0045 1.0089998 0.903
1.0115 1.0089998 0.90100002
1.0175 1.0089998 0.898
1.0275 1.0089998 0.87900001
0.97249997 1.0120001 0.88099998
1.0045 1.0120001 0.903
1.0115 1.0120001 0.90100002
1.0175 1.0120001 0.898
1.0275 1.0120001 0.87900001
0.99650002 1.0150003 0.898
1.0035 1.0150003 0.89600003
1.0115 1.0150003 0.903
0.99650002 1.0179996 0.898
1.0035 1.0179996 0.89600003
1.0115 1.0179996 0.903
0.99650002 1.0209999 0.898
1.0035 1.0209999 0.89600003
1.0115 1.0209999 0.903
0.99650002 1.0240002 0.898
1.0035 1.0240002 0.89600003
1.0115 1.0240002 0.903
0.99650002 1.0270004 0.898
1.0035 1.0270004 0.89600003
1.0115 1.0270004 0.903
0.99650002 1.0299997 0.898
1.0035 1.0299997 0.89600003
1.0115 1.0299997 0.903
0.99650002 1.033 0.898
1.0035 1.033 0.89600003
1.0115 1.033 0.903
0.99650002 1.0360003 0.898
1.0035 1.0360003 0.89600003
1.0115 1.0360003 0.903
0.99650002 1.0389996 0.898
1.0035 1.0389996 0.89600003
1.0115 1.0389996 0.903
0.99650002 1.0419998 0.898
1.0035 1.0419998 0.89600003
1.0115 1.0419998 0.903
0.99650002 1.0450001 0.898
1.0035 1.0450001 0.89600003
1.0115 1.0450001 0.903
0.98500007 0.96549988 0.70999998
0.99700004 0.96549988 0.66000003
1.0050001 0.96549988 0.66900003
0.98500007 0.96850014 0.70999998
0.99700004 0.96850014 0.66000003
1.0050001 0.96850014 0.66900003
0.98500007 0.9715004 0.70999998
0.99700004 0.9715004 0.66000003
1.0050001 0.9715004 0.66900003
0.98500007 0.97450066 0.70999998
0.99700004 0.97450066 0.66000003
1.0050001 0.97450066 0.66900003
0.98500007 0.97749996 0.70999998
0.99700004 0.97749996 0.66000003
1.0050001 0.97749996 0.66900003
0.98500007 0.98050022 0.70999998
0.99700004 0.98050022 0.66000003
1.0050001 0.98050022 0.66900003
0.98500007 0.98350048 0.70999998
0.99700004 0.98350048 0.66000003
1.0050001 0.98350048 0.66900003
0.98500007 0.98650074 0.70999998
0.99700004 0.98650074 0.66000003
1.0050001 0.98650074 0.66900003
0.98500007 0.98950005 0.70999998
0.99700004 0.98950005 0.66000003
1.0050001 0.98950005 0.66900003
0.98500007 0.99250031 0.70999998
0.99700004 0.99250031 0.66000003
1.0050001 0.99250031 0.66900003
0.98500007 0.99550056 0.70999998
0.99700004 0.99550056 0.66000003
1.0050001 0.99550056 0.66900003
0.98500007 0.99849987 0.70999998
0.99700004 0.99849987 0.66000003
1.0050001 0.99849987 0.66900003
0.98000008 1.0015001 0.63700002
0.99000007 1.0015001 0.67000002
0.99700004 1.0015001 0.67000002
1.0040001 1.0015001 0.65700001
1.0120001 1.0015001 0.66600001
1.0200001 1.0015001 0.66299999
0.98000008 1.0045004 0.63700002
0.99000007 1.0045004 0.67000002
0.99700004 1.0045004 0.67000002
1.0040001 1.0045004 0.65700001
1.0120001 1.0045004 0.66600001
1.0200001 1.0045004 0.66299999
0.98000008 1.0075006 0.63700002
0.99000007 1.0075006 0.67000002
0.99700004 1.0075006 0.67000002
1.0040001 1.0075006 0.65700001
1.0120001 1.0075006 0.66600001
1.0200001 1.0075006 0.66299999
0.98000008 1.0105 0.63700002
0.99000007 1.0105 0.67000002
0.99700004 1.0105 0.67000002
1.0040001 1.0105 0.65700001
1.0120001 1.0105 0.66600001
1.0200001 1.0105 0.66299999
0.98000008 1.0135002 0.63700002
0.99000007 1.0135002 0.67000002
0.99700004 1.0135002 0.67000002
1.0040001 1.0135002 0.65700001
1.0120001 1.0135002 0.66600001
1.0200001 1.0135002 0.66299999
0.98000008 1.0165005 0.63700002
0.99000007 1.0165005 0.67000002
0.99700004 1.0165005 0.67000002
1.0040001 1.0165005 0.65700001
1.0120001 1.0165005 0.66600001
1.0200001 1.0165005 0.66299999
0.98000008 1.0195007 0.63700002
0.99000007 1.0195007 0.67000002
0.99700004 1.0195007 0.67000002
1.0040001 1.0195007 0.65700001
1.0120001 1.0195007 0.66600001
1.0200001 1.0195007 0.66299999
0.98000008 1.0225 0.63700002
0.99000007 1.0225 0.67000002
0.99700004 1.0225 0.67000002
1.0040001 1.0225 0.65700001
1.0120001 1.0225 0.66600001
1.0200001 1.0225 0.66299999
0.98000008 1.0255003 0.63700002
0.99000007 1.0255003 0.67000002
0.99700004 1.0255003 0.67000002
1.0040001 1.0255003 0.65700001
1.0120001 1.0255003 0.66600001
1.0200001 1.0255003 0.66299999
0.98000008 1.0285006 0.63700002
0.99000007 1.0285006 0.67000002
0.99700004 1.0285006 0.67000002
1.0040001 1.0285006 0.65700001
1.0120001 1.0285006 0.66600001
1.0200001 1.0285006 0.66299999
0.98000008 1.0314999 0.63700002
0.99000007 1.0314999 0.67000002
0.99700004 1.0314999 0.67000002
1.0040001 1.0314999 0.65700001
1.0120001 1.0314999 0.66600001
1.0200001 1.0314999 0.66299999
0.98000008 1.0345001 0.63700002
0.99000007 1.0345001 0.67000002
0.99700004 1.0345001 0.67000002
1.0040001 1.0345001 0.65700001
1.0120001 1.0345001 0.66600001
1.0200001 1.0345001 0.66299999
0.9975 0.95799828 1.34
1.0005 0.95799828 1.346
0.9975 0.95799828 1.3890001
1.0155001 0.95799828 1.372
0.9975 0.96099854 1.34
1.0005 0.96099854 1.346
0.9975 0.96099854 1.3890001
1.0155001 0.96099854 1.372
0.9975 0.96399879 1.34
1.0005 0.96399879 1.346
0.9975 0.96399879 1.3890001
1.0155001 0.96399879 1.372
0.9975 0.96699905 1.34
1.0005 0.96699905 1.346
0.9975 0.96699905 1.3890001
1.0155001 0.96699905 1.372
0.9975 0.96999931 1.34
1.0005 0.96999931 1.346
0.9975 0.96999931 1.3890001
1.0155001 0.96999931 1.372
0.9975 0.97299957 1.34
1.0005 0.97299957 1.346
0.9975 0.97299957 1.3890001
1.0155001 0.97299957 1.372
0.9975 0.97599983 1.34
1.0005 0.97599983 1.346
0.9975 0.97599983 1.3890001
1.0155001 0.97599983 1.372
0.9975 0.97899818 1.34
1.0005 0.97899818 1.346
0.9975 0.97899818 1.3890001
1.0155001 0.97899818 1.372
0.9975 0.98199844 1.34
1.0005 0.98199844 1.346
0.9975 0.98199844 1.3890001
1.0155001 0.98199844 1.372
1.0115 0.9849987 1.298
0.9885 0.9849987 1.354
0.98449999 0.9849987 1.369
0.99349999 0.9849987 1.3660001
1.0105 0.9849987 1.37
1.0115 0.98799896 1.298
0.9885 0.98799896 1.354
0.98449999 0.98799896 1.369
0.99349999 0.98799896 1.3660001
1.0105 0.98799896 1.37
1.0115 0.99099922 1.298
0.9885 0.99099922 1.354
0.98449999 0.99099922 1.369
0.99349999 0.99099922 1.3660001
1.0105 0.99099922 1.37
1.0115 0.99399948 1.298
0.9885 0.99399948 1.354
0.98449999 0.99399948 1.369
0.99349999 0.99399948 1.3660001
1.0105 0.99399948 1.37
1.0115 0.99699974 1.298
0.9885 0.99699974 1.354
0.98449999 0.99699974 1.369
0.99349999 0.99699974 1.3660001
1.0105 0.99699974 1.37
1.0115 0.99999809 1.298
0.9885 0.99999809 1.354
0.98449999 0.99999809 1.369
0.99349999 0.99999809 1.3660001
1.0105 0.99999809 1.37
1.0115 1.0029984 1.298
0.9885 1.0029984 1.354
0.98449999 1.0029984 1.369
0.99349999 1.0029984 1.3660001
1.0105 1.0029984 1.37
1.0115 1.0059986 1.298
0.9885 1.0059986 1.354
0.98449999 1.0059986 1.369
0.99349999 1.0059986 1.3660001
1.0105 1.0059986 1.37
1.0115 1.0089989 1.298
0.9885 1.0089989 1.354
0.98449999 1.0089989 1.369
0.99349999 1.0089989 1.3660001
1.0105 1.0089989 1.37
1.0115 1.0119991 1.298
0.9885 1.0119991 1.354
0.98449999 1.0119991 1.369
0.99349999 1.0119991 1.3660001
1.0105 1.0119991 1.37
1.0115 1.0149994 1.298
0.9885 1.0149994 1.354
0.98449999 1.0149994 1.369
0.99349999 1.0149994 1.3660001
1.0105 1.0149994 1.37
1.0115 1.0179996 1.298
0.9885 1.0179996 1.354
0.98449999 1.0179996 1.369
0.99349999 1.0179996 1.3660001
1.0105 1.0179996 1.37
1.0115 1.020998 1.298
0.9885 1.020998 1.354
0.98449999 1.020998 1.369
0.99349999 1.020998 1.3660001
1.0105 1.020998 1.37
1.0074999 1.0239983 1.304
1.0074999 1.0269985 1.304
1.0074999 1.0299988 1.304
1.0074999 1.032999 1.304
1.0074999 1.0359993 1.304
1.0074999 1.0389996 1.304
1.0074999 1.0419998 1.304
0.99449998 0.91449928 1.636
0.99449998 0.91749954 1.636
0.99449998 0.9204998 1.636
0.99449998 0.92350006 1.636
0.99449998 0.92650032 1.636
0.99449998 0.92950058 1.636
0.99449998 0.93250084 1.636
0.99449998 0.9355011 1.636
0.99449998 0.93849945 1.636
0.99249995 0.94149971 1.647
0.99949998 0.94149971 1.646
0.99249995 0.94449997 1.647
0.99949998 0.94449997 1.646
0.99249995 0.94750023 1.647
0.99949998 0.94750023 1.646
0.99249995 0.95050049 1.647
0.99949998 0.95050049 1.646
0.99249995 0.95350075 1.647
0.99949998 0.95350075 1.646
0.99249995 0.95650101 1.647
0.99949998 0.95650101 1.646
0.99249995 0.95949936 1.647
0.99949998 0.95949936 1.646
0.99249995 0.96249962 1.647
0.99949998 0.96249962 1.646
0.99249995 0.96549988 1.647
0.99949998 0.96549988 1.646
0.99249995 0.96850014 1.647
0.99949998 0.96850014 1.646
0.99249995 0.9715004 1.647
0.99949998 0.9715004 1.646
0.99249995 0.97450066 1.647
0.99949998 0.97450066 1.646
0.98649997 0.97750092 1.626
0.99249995 0.97750092 1.648
1.0065 0.97750092 1.645
0.98649997 0.98049927 1.626
0.99249995 0.98049927 1.648
1.0065 0.98049927 1.645
0.98649997 0.98349953 1.626
0.99249995 0.98349953 1.648
1.0065 0.98349953 1.645
0.98649997 0.98649979 1.626
0.99249995 0.98649979 1.648
1.0065 0.98649979 1.645
0.98649997 0.98950005 1.626
0.99249995 0.98950005 1.648
1.0065 0.98950005 1.645
0.98649997 0.99250031 1.626
0.99249995 0.99250031 1.648
1.0065 0.99250031 1.645
0.98649997 0.99550056 1.626
0.99249995 0.99550056 1.648
1.0065 0.99550056 1.645
0.98649997 0.99850082 1.626
0.99249995 0.99850082 1.648
1.0065 0.99850082 1.645
0.98649997 1.0015011 1.626
0.99249995 1.0015011 1.648
1.0065 1.0015011 1.645
0.98649997 1.0044994 1.626
0.99249995 1.0044994 1.648
1.0065 1.0044994 1.645
0.98649997 1.0074997 1.626
0.99249995 1.0074997 1.648
1.0065 1.0074997 1.645
0.98649997 1.0105 1.626
0.99249995 1.0105 1.648
1.0065 1.0105 1.645
0.99849999 1.0135002 1.65
1.0135 1.0135002 1.646
0.99849999 1.0165005 1.65
1.0135 1.0165005 1.646
0.99849999 1.0195007 1.65
1.0135 1.0195007 1.646
0.99849999 1.022501 1.65
1.0135 1.022501 1.646
0.99849999 1.0254993 1.65
1.0135 1.0254993 1.646
0.99849999 1.0284996 1.65
1.0135 1.0284996 1.646
0.99849999 1.0314999 1.65
1.0135 1.0314999 1.646
0.99849999 1.0345001 1.65
1.0135 1.0345001 1.646
0.99849999 1.0375004 1.65
1.0135 1.0375004 1.646
0.99849999 1.0405006 1.65
1.0135 1.0405006 1.646
0.99849999 1.0435009 1.65
1.0135 1.0435009 1.646
0.99849999 1.0464993 1.65
1.0135 1.0464993 1.646
0.99849999 1.0494995 1.65
1.0135 1.0494995 1.646
1.0125 1.0524998 1.648
1.0125 1.0555 1.648
1.0125 1.0585003 1.648
1.0125 1.0615005 1.648
1.0125 1.0645008 1.648
1.0125 1.0675011 1.648
1.0125 1.0704994 1.648
1.0125 1.0734997 1.648
1.0125 1.0764999 1.648
1.0125 1.0795002 1.648
1.0125 1.0825005 1.648
1.0125 1.0855007 1.648
0.98049998 0.97300053 1.068
0.99549997 0.97300053 1.024
1.0015 0.97300053 1.0319999
1.0074999 0.97300053 1.0319999
1.0135 0.97300053 1.026
1.0195 0.97300053 1.033
0.98049998 0.97600079 1.068
0.99549997 0.97600079 1.024
1.0015 0.97600079 1.0319999
1.0074999 0.97600079 1.0319999
1.0135 0.97600079 1.026
1.0195 0.97600079 1.033
0.98049998 0.97900105 1.068
0.99549997 0.97900105 1.024
1.0015 0.97900105 1.0319999
1.0074999 0.97900105 1.0319999
1.0135 0.97900105 1.026
1.0195 0.97900105 1.033
0.98049998 0.98200035 1.068
0.99549997 0.98200035 1.024
1.0015 0.98200035 1.0319999
1.0074999 0.98200035 1.0319999
1.0135 0.98200035 1.026
1.0195 0.98200035 1.033
0.98049998 0.98500061 1.068
0.99549997 0.98500061 1.024
1.0015 0.98500061 1.0319999
1.0074999 0.98500061 1.0319999
1.0135 0.98500061 1.026
1.0195 0.98500061 1.033
0.98049998 0.98800087 1.068
0.99549997 0.98800087 1.024
1.0015 0.98800087 1.0319999
1.0074999 0.98800087 1.0319999
1.0135 0.98800087 1.026
1.0195 0.98800087 1.033
0.98049998 0.99100113 1.068
0.99549997 0.99100113 1.024
1.0015 0.99100113 1.0319999
1.0074999 0.99100113 1.0319999
1.0135 0.99100113 1.026
1.0195 0.99100113 1.033
0.98049998 0.99400043 1.068
0.99549997 0.99400043 1.024
1.0015 0.99400043 1.0319999
1.0074999 0.99400043 1.0319999
1.0135 0.99400043 1.026
1.0195 0.99400043 1.033
0.98049998 0.99700069 1.068
0.99549997 0.99700069 1.024
1.0015 0.99700069 1.0319999
1.0074999 0.99700069 1.0319999
1.0135 0.99700069 1.026
1.0195 0.99700069 1.033
0.98049998 1.000001 1.068
0.99549997 1.000001 1.024
1.0015 1.000001 1.0319999
1.0074999 1.000001 1.0319999
1.0135 1.000001 1.026
1.0195 1.000001 1.033
0.98049998 1.0030012 1.068
0.99549997 1.0030012 1.024
1.0015 1.0030012 1.0319999
1.0074999 1.0030012 1.0319999
1.0135 1.0030012 1.026
1.0195 1.0030012 1.033
0.98049998 1.0060005 1.068
0.99549997 1.0060005 1.024
1.0015 1.0060005 1.0319999
1.0074999 1.0060005 1.0319999
1.0135 1.0060005 1.026
1.0195 1.0060005 1.033
0.99749994 1.0090008 0.99800003
1.0005 1.0090008 1.035
1.0074999 1.0090008 1.03
1.0135 1.0090008 1.031
1.0195 1.0090008 1.034
0.99749994 1.012001 0.99800003
1.0005 1.012001 1.035
1.0074999 1.012001 1.03
1.0135 1.012001 1.031
1.0195 1.012001 1.034
0.99749994 1.0150003 0.99800003
1.0005 1.0150003 1.035
1.0074999 1.0150003 1.03
1.0135 1.0150003 1.031
1.0195 1.0150003 1.034
0.99749994 1.0180006 0.99800003
1.0005 1.0180006 1.035
1.0074999 1.0180006 1.03
1.0135 1.0180006 1.031
1.0195 1.0180006 1.034
0.99749994 1.0210009 0.99800003
1.0005 1.0210009 1.035
1.0074999 1.0210009 1.03
1.0135 1.0210009 1.031
1.0195 1.0210009 1.034
0.99749994 1.0240011 0.99800003
1.0005 1.0240011 1.035
1.0074999 1.0240011 1.03
1.0135 1.0240011 1.031
1.0195 1.0240011 1.034
0.99749994 1.0270004 0.99800003
1.0005 1.0270004 1.035
1.0074999 1.0270004 1.03
1.0135 1.0270004 1.031
1.0195 1.0270004 1.034
0.98449999 0.93849993 1.09
0.98449999 0.93849993 1.077
0.98550004 0.93849993 1.067
0.98650002 0.93849993 1.0549999
0.9885 0.93849993 1.046
1.0025001 0.93849993 1.054
0.98449999 0.94150019 1.09
0.98449999 0.94150019 1.077
0.98550004 0.94150019 1.067
0.98650002 0.94150019 1.0549999
0.9885 0.94150019 1.046
1.0025001 0.94150019 1.054
0.98449999 0.94449997 1.09
0.98449999 0.94449997 1.077
0.98550004 0.94449997 1.067
0.98650002 0.94449997 1.0549999
0.9885 0.94449997 1.046
1.0025001 0.94449997 1.054
0.98449999 0.94750023 1.09
0.98449999 0.94750023 1.077
0.98550004 0.94750023 1.067
0.98650002 0.94750023 1.0549999
0.9885 0.94750023 1.046
1.0025001 0.94750023 1.054
0.98449999 0.95050001 1.09
0.98449999 0.95050001 1.077
0.98550004 0.95050001 1.067
0.98650002 0.95050001 1.0549999
0.9885 0.95050001 1.046
1.0025001 0.95050001 1.054
0.98449999 0.95350027 1.09
0.98449999 0.95350027 1.077
0.98550004 0.95350027 1.067
0.98650002 0.95350027 1.0549999
0.9885 0.95350027 1.046
1.0025001 0.95350027 1.054
0.98449999 0.95650005 1.09
0.98449999 0.95650005 1.077
0.98550004 0.95650005 1.067
0.98650002 0.95650005 1.0549999
0.9885 0.95650005 1.046
1.0025001 0.95650005 1.054
0.98449999 0.95950031 1.09
0.98449999 0.95950031 1.077
0.98550004 0.95950031 1.067
0.98650002 0.95950031 1.0549999
0.9885 0.95950031 1.046
1.0025001 0.95950031 1.054
0.98449999 0.9625001 1.09
0.98449999 0.9625001 1.077
0.98550004 0.9625001 1.067
0.98650002 0.9625001 1.0549999
0.9885 0.9625001 1.046
1.0025001 0.9625001 1.054
0.98449999 0.96550035 1.09
0.98449999 0.96550035 1.077
0.98550004 0.96550035 1.067
0.98650002 0.96550035 1.0549999
0.9885 0.96550035 1.046
1.0025001 0.96550035 1.054
0.98449999 0.96850014 1.09
0.98449999 0.96850014 1.077
0.98550004 0.96850014 1.067
0.98650002 0.96850014 1.0549999
0.9885 0.96850014 1.046
1.0025001 0.96850014 1.054
0.98449999 0.97149992 1.09
0.98449999 0.97149992 1.077
0.98550004 0.97149992 1.067
0.98650002 0.97149992 1.0549999
0.9885 0.97149992 1.046
1.0025001 0.97149992 1.054
0.99449998 1.0105 0.97399998
0.99849999 1.0105 0.96799999
0.99449998 1.0135002 0.97399998
0.99849999 1.0135002 0.96799999
0.99449998 1.0165 0.97399998
0.99849999 1.0165 0.96799999
0.99449998 1.0195003 0.97399998
0.99849999 1.0195003 0.96799999
0.99449998 1.0225 0.97399998
0.99849999 1.0225 0.96799999
0.99449998 1.0255003 0.97399998
0.99849999 1.0255003 0.96799999
0.99250001 1.0285001 0.95700002
1.0155001 1.0285001 0.98100001
0.99250001 1.0315003 0.95700002
1.0155001 1.0315003 0.98100001
0.99250001 1.0345001 0.95700002
1.0155001 1.0345001 0.98100001
0.99250001 1.0374999 0.95700002
1.0155001 1.0374999 0.98100001
0.99250001 1.0405002 0.95700002
1.0155001 1.0405002 0.98100001
0.99250001 1.0434999 0.95700002
1.0155001 1.0434999 0.98100001
0.99250001 1.0465002 0.95700002
1.0155001 1.0465002 0.98100001
0.99250001 1.0495 0.95700002
1.0155001 1.0495 0.98100001
0.99250001 1.0525002 0.95700002
1.0155001 1.0525002 0.98100001
0.99250001 1.0555 0.95700002
1.0155001 1.0555 0.98100001
0.99250001 1.0585003 0.95700002
1.0155001 1.0585003 0.98100001
1.0155001 1.0615001 0.98100001
0.99200004 0.93400002 0.72600001
0.99200004 0.93699932 0.72600001
0.99200004 0.93999958 0.72600001
0.99200004 0.94299984 0.72600001
0.99200004 0.9460001 0.72600001
0.99200004 0.9489994 0.72600001
0.99200004 0.95199966 0.72600001
0.99200004 0.95499992 0.72600001
1.008 0.95799923 0.75099999
1.013 0.95799923 0.71700001
1.008 0.96099949 0.75099999
1.013 0.96099949 0.71700001
1.008 0.96399975 0.75099999
1.013 0.96399975 0.71700001
1.008 0.96700001 0.75099999
1.013 0.96700001 0.71700001
1.008 0.96999931 0.75099999
1.013 0.96999931 0.71700001
1.008 0.97299957 0.75099999
1.013 0.97299957 0.71700001
1.008 0.97599983 0.75099999
1.013 0.97599983 0.71700001
1.008 0.97900009 0.75099999
1.013 0.97900009 0.71700001
1.008 0.9819994 0.75099999
1.013 0.9819994 0.71700001
1.008 0.98499966 0.75099999
1.013 0.98499966 0.71700001
1.008 0.98799992 0.75099999
1.013 0.98799992 0.71700001
1.008 0.99099922 0.75099999
1.013 0.99099922 0.71700001
1.008 0.99399948 0.75099999
1.013 0.99399948 0.71700001
0.98400003 0.99699974 0.72000003
0.99000001 0.99699974 0.70899999
1 0.99699974 0.73500001
1.0070001 0.99699974 0.73500001
1.016 0.99699974 0.75800002
0.98400003 1 0.72000003
0.99000001 1 0.70899999
1 1 0.73500001
1.0070001 1 0.73500001
1.016 1 0.75800002
0.98400003 1.0029993 0.72000003
0.99000001 1.0029993 0.70899999
1 1.0029993 0.73500001
1.0070001 1.0029993 0.73500001
1.016 1.0029993 0.75800002
0.98400003 1.0059996 0.72000003
0.99000001 1.0059996 0.70899999
1 1.0059996 0.73500001
1.0070001 1.0059996 0.73500001
1.016 1.0059996 0.75800002
0.98400003 1.0089998 0.72000003
0.99000001 1.0089998 0.70899999
1 1.0089998 0.73500001
1.0070001 1.0089998 0.73500001
1.016 1.0089998 0.75800002
0.98400003 1.0120001 0.72000003
0.99000001 1.0120001 0.70899999
1 1.0120001 0.73500001
1.0070001 1.0120001 0.73500001
1.016 1.0120001 0.75800002
0.98400003 1.0149994 0.72000003
0.99000001 1.0149994 0.70899999
1 1.0149994 0.73500001
1.0070001 1.0149994 0.73500001
1.016 1.0149994 0.75800002
0.98400003 1.0179996 0.72000003
0.99000001 1.0179996 0.70899999
1 1.0179996 0.73500001
1.0070001 1.0179996 0.73500001
1.016 1.0179996 0.75800002
0.98400003 1.0209999 0.72000003
0.99000001 1.0209999 0.70899999
1 1.0209999 0.73500001
1.0070001 1.0209999 0.73500001
1.016 1.0209999 0.75800002
0.98400003 1.0239992 0.72000003
0.99000001 1.0239992 0.70899999
1 1.0239992 0.73500001
1.0070001 1.0239992 0.73500001
1.016 1.0239992 0.75800002
0.98400003 1.0269995 0.72000003
0.99000001 1.0269995 0.70899999
1 1.0269995 0.73500001
1.0070001 1.0269995 0.73500001
1.016 1.0269995 0.75800002
0.98400003 1.0299997 0.72000003
0.99000001 1.0299997 0.70899999
1 1.0299997 0.73500001
1.0070001 1.0299997 0.73500001
1.016 1.0299997 0.75800002
0.99800003 1.033 0.70700002
0.99800003 1.0359993 0.70700002
0.99800003 1.0389996 0.70700002
0.99800003 1.0419998 0.70700002
0.99800003 1.0450001 0.70700002
0.99800003 1.0479994 0.70700002
0.99800003 1.0509996 0.70700002
0.99800003 1.0539999 0.70700002
0.99800003 1.0569992 0.70700002
0.99800003 1.0599995 0.70700002
0.99800003 1.0629997 0.70700002
0.99800003 1.066 0.70700002
0.9855001 0.97000027 0.5
0.98750007 0.97000027 0.51599997
0.99950004 0.97000027 0.51499999
1.0065 0.97000027 0.523
1.0215 0.97000027 0.51899999
0.9855001 0.97300005 0.5
0.98750007 0.97300005 0.51599997
0.99950004 0.97300005 0.51499999
1.0065 0.97300005 0.523
1.0215 0.97300005 0.51899999
0.9855001 0.97600031 0.5
0.98750007 0.97600031 0.51599997
0.99950004 0.97600031 0.51499999
1.0065 0.97600031 0.523
1.0215 0.97600031 0.51899999
0.9855001 0.97900009 0.5
0.98750007 0.97900009 0.51599997
0.99950004 0.97900009 0.51499999
1.0065 0.97900009 0.523
1.0215 0.97900009 0.51899999
0.9855001 0.98200035 0.5
0.98750007 0.98200035 0.51599997
0.99950004 0.98200035 0.51499999
1.0065 0.98200035 0.523
1.0215 0.98200035 0.51899999
0.9855001 0.98500013 0.5
0.98750007 0.98500013 0.51599997
0.99950004 0.98500013 0.51499999
1.0065 0.98500013 0.523
1.0215 0.98500013 0.51899999
0.9855001 0.98799992 0.5
0.98750007 0.98799992 0.51599997
0.99950004 0.98799992 0.51499999
1.0065 0.98799992 0.523
1.0215 0.98799992 0.51899999
0.9855001 0.99100018 0.5
0.98750007 0.99100018 0.51599997
0.99950004 0.99100018 0.51499999
1.0065 0.99100018 0.523
1.0215 0.99100018 0.51899999
0.9855001 0.99399996 0.5
0.98750007 0.99399996 0.51599997
0.99950004 0.99399996 0.51499999
1.0065 0.99399996 0.523
1.0215 0.99399996 0.51899999
0.9855001 0.99700022 0.5
0.98750007 0.99700022 0.51599997
0.99950004 0.99700022 0.51499999
1.0065 0.99700022 0.523
1.0215 0.99700022 0.51899999
0.9855001 1 0.5
0.98750007 1 0.51599997
0.99950004 1 0.51499999
1.0065 1 0.523
1.0215 1 0.51899999
0.9855001 1.0030003 0.5
0.98750007 1.0030003 0.51599997
0.99950004 1.0030003 0.51499999
1.0065 1.0030003 0.523
1.0215 1.0030003 0.51899999
0.97850001 1.006 0.493
0.99050009 1.006 0.493
0.99849999 1.006 0.5
1.0055001 1.006 0.50700003
1.0105001 1.006 0.51800001
0.97850001 1.0090003 0.493
0.99050009 1.0090003 0.493
0.99849999 1.0090003 0.5
1.0055001 1.0090003 0.50700003
1.0105001 1.0090003 0.51800001
0.97850001 1.0120001 0.493
0.99050009 1.0120001 0.493
0.99849999 1.0120001 0.5
1.0055001 1.0120001 0.50700003
1.0105001 1.0120001 0.51800001
0.97850001 1.0150003 0.493
0.99050009 1.0150003 0.493
0.99849999 1.0150003 0.5
1.0055001 1.0150003 0.50700003
1.0105001 1.0150003 0.51800001
0.97850001 1.0180001 0.493
0.99050009 1.0180001 0.493
0.99849999 1.0180001 0.5
1.0055001 1.0180001 0.50700003
1.0105001 1.0180001 0.51800001
0.97850001 1.0209999 0.493
0.99050009 1.0209999 0.493
0.99849999 1.0209999 0.5
1.0055001 1.0209999 0.50700003
1.0105001 1.0209999 0.51800001
0.97850001 1.0240002 0.493
0.99050009 1.0240002 0.493
0.99849999 1.0240002 0.5
1.0055001 1.0240002 0.50700003
1.0105001 1.0240002 0.51800001
0.97850001 1.027 0.493
0.99050009 1.027 0.493
0.99849999 1.027 0.5
1.0055001 1.027 0.50700003
1.0105001 1.027 0.51800001
0.97850001 1.0300002 0.493
0.99050009 1.0300002 0.493
0.99849999 1.0300002 0.5
1.0055001 1.0300002 0.50700003
1.0105001 1.0300002 0.51800001
0.99199998 0.91900063 1.636
1.003 0.91900063 1.624
0.99199998 0.92200089 1.636
1.003 0.92200089 1.624
0.99199998 0.92500114 1.636
1.003 0.92500114 1.624
0.99199998 0.9280014 1.636
1.003 0.9280014 1.624
0.99199998 0.93099976 1.636
1.003 0.93099976 1.624
0.99199998 0.93400002 1.636
1.003 0.93400002 1.624
0.99199998 0.93700027 1.636
1.003 0.93700027 1.624
0.99199998 0.94000053 1.636
1.003 0.94000053 1.624
0.99199998 0.94300079 1.636
1.003 0.94300079 1.624
0.99199998 0.94600105 1.636
1.003 0.94600105 1.624
0.99199998 0.94900131 1.636
1.003 0.94900131 1.624
0.99299997 0.95199966 1.65
1.005 0.95199966 1.656
0.99299997 0.95499992 1.65
1.005 0.95499992 1.656
0.99299997 0.95800018 1.65
1.005 0.95800018 1.656
0.99299997 0.96100044 1.65
1.005 0.96100044 1.656
0.99299997 0.9640007 1.65
1.005 0.9640007 1.656
0.99299997 0.96700096 1.65
1.005 0.96700096 1.656
0.99299997 0.97000122 1.65
1.005 0.97000122 1.656
0.99299997 0.97300148 1.65
1.005 0.97300148 1.656
0.99299997 0.97599983 1.65
1.005 0.97599983 1.656
0.99299997 0.97900009 1.65
1.005 0.97900009 1.656
0.99299997 0.98200035 1.65
1.005 0.98200035 1.656
0.99299997 0.98500061 1.65
1.005 0.98500061 1.656
0.991 0.98800087 1.641
0.99899995 0.98800087 1.6390001
1.0089999 0.98800087 1.652
0.991 0.99100113 1.641
0.99899995 0.99100113 1.6390001
1.0089999 0.99100113 1.652
0.991 0.99400139 1.641
0.99899995 0.99400139 1.6390001
1.0089999 0.99400139 1.652
0.991 0.99699974 1.641
0.99899995 0.99699974 1.6390001
1.0089999 0.99699974 1.652
0.991 1 1.641
0.99899995 1 1.6390001
1.0089999 1 1.652
0.991 1.0030003 1.641
0.99899995 1.0030003 1.6390001
1.0089999 1.0030003 1.652
0.991 1.0060005 1.641
0.99899995 1.0060005 1.6390001
1.0089999 1.0060005 1.652
0.991 1.0090008 1.641
0.99899995 1.0090008 1.6390001
1.0089999 1.0090008 1.652
0.991 1.012001 1.641
0.99899995 1.012001 1.6390001
1.0089999 1.012001 1.652
0.991 1.0150013 1.641
0.99899995 1.0150013 1.6390001
1.0089999 1.0150013 1.652
0.991 1.0179996 1.641
0.99899995 1.0179996 1.6390001
1.0089999 1.0179996 1.652
0.991 1.0209999 1.641
0.99899995 1.0209999 1.6390001
1.0089999 1.0209999 1.652
0.991 1.0240002 1.641
0.99899995 1.0240002 1.6390001
1.0089999 1.0240002 1.652
0.99199998 1.0270004 1.638
0.99199998 1.0300007 1.638
0.99199998 1.0330009 1.638
0.99199998 1.0360012 1.638
0.99199998 1.0390015 1.638
0.99199998 1.0419998 1.638
0.99199998 1.0450001 1.638
0.99199998 1.0480003 1.638
0.99199998 1.0510006 1.638
0.99199998 1.0540009 1.638
0.99199998 1.0570011 1.638
0.99199998 1.0600014 1.638
1.007 1.0629997 1.647
1.007 1.066 1.647
1.007 1.0690002 1.647
1.007 1.0720005 1.647
1.007 1.0750008 1.647
1.007 1.078001 1.647
1.007 1.0810013 1.647
0.98199987 0.96550083 0.37200001
0.9849999 0.96550083 0.35699999
0.99699998 0.96550083 0.35600001
1.0089999 0.96550083 0.35499999
0.98199987 0.96850014 0.37200001
0.9849999 0.96850014 0.35699999
0.99699998 0.96850014 0.35600001
1.0089999 0.96850014 0.35499999
0.98199987 0.9715004 0.37200001
0.9849999 0.9715004 0.35699999
0.99699998 0.9715004 0.35600001
1.0089999 0.9715004 0.35499999
0.98199987 0.97450066 0.37200001
0.9849999 0.97450066 0.35699999
0.99699998 0.97450066 0.35600001
1.0089999 0.97450066 0.35499999
1.007 0.97750092 0.42699999
0.98199987 0.97750092 0.37200001
0.9849999 0.97750092 0.35699999
0.99699998 0.97750092 0.35600001
1.0089999 0.97750092 0.35499999
1.007 0.98050022 0.42699999
0.98199987 0.98050022 0.37200001
0.9849999 0.98050022 0.35699999
0.99699998 0.98050022 0.35600001
1.0089999 0.98050022 0.35499999
1.007 0.98350048 0.42699999
0.98199987 0.98350048 0.37200001
0.9849999 0.98350048 0.35699999
0.99699998 0.98350048 0.35600001
1.0089999 0.98350048 0.35499999
1.007 0.98650074 0.42699999
0.98199987 0.98650074 0.37200001
0.9849999 0.98650074 0.35699999
0.99699998 0.98650074 0.35600001
1.0089999 0.98650074 0.35499999
1.007 0.98950005 0.42699999
0.98199987 0.98950005 0.37200001
0.9849999 0.98950005 0.35699999
0.99699998 0.98950005 0.35600001
1.0089999 0.98950005 0.35499999
1.007 0.99250031 0.42699999
0.98199987 0.99250031 0.37200001
0.9849999 0.99250031 0.35699999
0.99699998 0.99250031 0.35600001
1.0089999 0.99250031 0.35499999
1.007 0.99550056 0.42699999
0.98199987 0.99550056 0.37200001
0.9849999 0.99550056 0.35699999
0.99699998 0.99550056 0.35600001
1.0089999 0.99550056 0.35499999
1.007 0.99850082 0.42699999
0.98199987 0.99850082 0.37200001
0.9849999 0.99850082 0.35699999
0.99699998 0.99850082 0.35600001
1.0089999 0.99850082 0.35499999
0.99199998 1.0015001 0.38600001
0.99799991 1.0015001 0.377
1.0159999 1.0015001 0.384
1.0179999 1.0015001 0.36700001
0.99199998 1.0045004 0.38600001
0.99799991 1.0045004 0.377
1.0159999 1.0045004 0.384
1.0179999 1.0045004 0.36700001
0.99199998 1.0075006 0.38600001
0.99799991 1.0075006 0.377
1.0159999 1.0075006 0.384
1.0179999 1.0075006 0.36700001
0.99199998 1.0105009 0.38600001
0.99799991 1.0105009 0.377
1.0159999 1.0105009 0.384
1.0179999 1.0105009 0.36700001
0.99199998 1.0135002 0.38600001
0.99799991 1.0135002 0.377
1.0159999 1.0135002 0.384
1.0179999 1.0135002 0.36700001
0.99199998 1.0165005 0.38600001
0.99799991 1.0165005 0.377
1.0159999 1.0165005 0.384
1.0179999 1.0165005 0.36700001
0.99199998 1.0195007 0.38600001
0.99799991 1.0195007 0.377
1.0159999 1.0195007 0.384
1.0179999 1.0195007 0.36700001
0.99199998 1.0225 0.38600001
0.99799991 1.0225 0.377
1.0159999 1.0225 0.384
1.0179999 1.0225 0.36700001
0.99199998 1.0255003 0.38600001
0.99799991 1.0255003 0.377
1.0159999 1.0255003 0.384
1.0179999 1.0255003 0.36700001
0.99199998 1.0285006 0.38600001
0.99799991 1.0285006 0.377
1.0159999 1.0285006 0.384
1.0179999 1.0285006 0.36700001
0.99199998 1.0315008 0.38600001
0.99799991 1.0315008 0.377
1.0159999 1.0315008 0.384
1.0179999 1.0315008 0.36700001
0.99199998 1.0345001 0.38600001
0.99799991 1.0345001 0.377
1.0159999 1.0345001 0.384
1.0179999 1.0345001 0.36700001
0.98650002 0.97299957 1.276
1.0005 0.97299957 1.266
1.0025001 0.97299957 1.273
1.0065 0.97299957 1.277
0.98650002 0.97599888 1.276
1.0005 0.97599888 1.266
1.0025001 0.97599888 1.273
1.0065 0.97599888 1.277
0.98650002 0.97899914 1.276
1.0005 0.97899914 1.266
1.0025001 0.97899914 1.273
1.0065 0.97899914 1.277
0.98650002 0.9819994 1.276
1.0005 0.9819994 1.266
1.0025001 0.9819994 1.273
1.0065 0.9819994 1.277
0.98650002 0.98499966 1.276
1.0005 0.98499966 1.266
1.0025001 0.98499966 1.273
1.0065 0.98499966 1.277
0.98650002 0.98799896 1.276
1.0005 0.98799896 1.266
1.0025001 0.98799896 1.273
1.0065 0.98799896 1.277
0.98650002 0.99099922 1.276
1.0005 0.99099922 1.266
1.0025001 0.99099922 1.273
1.0065 0.99099922 1.277
0.98650002 0.99399948 1.276
1.0005 0.99399948 1.266
1.0025001 0.99399948 1.273
1.0065 0.99399948 1.277
0.98650002 0.99699974 1.276
1.0005 0.99699974 1.266
1.0025001 0.99699974 1.273
1.0065 0.99699974 1.277
0.98650002 0.99999905 1.276
1.0005 0.99999905 1.266
1.0025001 0.99999905 1.273
1.0065 0.99999905 1.277
0.98650002 1.0029993 1.276
1.0005 1.0029993 1.266
1.0025001 1.0029993 1.273
1.0065 1.0029993 1.277
0.98650002 1.0059996 1.276
1.0005 1.0059996 1.266
1.0025001 1.0059996 1.273
1.0065 1.0059996 1.277
0.99050003 1.0089989 1.225
0.97250003 1.0089989 1.286
1.0135 1.0089989 1.234
0.99750006 1.0089989 1.27
0.99550003 1.0089989 1.283
1.0075001 1.0089989 1.276
1.0165 1.0089989 1.273
1.0275 1.0089989 1.268
0.99050003 1.0119991 1.225
0.97250003 1.0119991 1.286
1.0135 1.0119991 1.234
0.99750006 1.0119991 1.27
0.99550003 1.0119991 1.283
1.0075001 1.0119991 1.276
1.0165 1.0119991 1.273
1.0275 1.0119991 1.268
0.99050003 1.0149994 1.225
0.97250003 1.0149994 1.286
1.0135 1.0149994 1.234
0.99750006 1.0149994 1.27
0.99550003 1.0149994 1.283
1.0075001 1.0149994 1.276
1.0165 1.0149994 1.273
1.0275 1.0149994 1.268
0.99050003 1.0179996 1.225
0.97250003 1.0179996 1.286
1.0135 1.0179996 1.234
0.99750006 1.0179996 1.27
0.99550003 1.0179996 1.283
1.0075001 1.0179996 1.276
1.0165 1.0179996 1.273
1.0275 1.0179996 1.268
0.99050003 1.020999 1.225
0.97250003 1.020999 1.286
1.0135 1.020999 1.234
0.99750006 1.020999 1.27
0.99550003 1.020999 1.283
1.0075001 1.020999 1.276
1.0165 1.020999 1.273
1.0275 1.020999 1.268
0.99050003 1.0239992 1.225
0.97250003 1.0239992 1.286
1.0135 1.0239992 1.234
0.99750006 1.0239992 1.27
0.99550003 1.0239992 1.283
1.0075001 1.0239992 1.276
1.0165 1.0239992 1.273
1.0275 1.0239992 1.268
0.99050003 1.0269995 1.225
0.97250003 1.0269995 1.286
1.0135 1.0269995 1.234
0.99750006 1.0269995 1.27
0.99550003 1.0269995 1.283
1.0075001 1.0269995 1.276
1.0165 1.0269995 1.273
1.0275 1.0269995 1.268
1.018 0.97450018 0.55500001
0.99900007 0.97450018 0.602
0.995 0.97450018 0.62400001
0.99100006 0.97450018 0.64700001
0.99600005 0.97450018 0.65600002
1.018 0.97750044 0.55500001
0.99900007 0.97750044 0.602
0.995 0.97750044 0.62400001
0.99100006 0.97750044 0.64700001
0.99600005 0.97750044 0.65600002
1.018 0.98050022 0.55500001
0.99900007 0.98050022 0.602
0.995 0.98050022 0.62400001
0.99100006 0.98050022 0.64700001
0.99600005 0.98050022 0.65600002
1.018 0.98350048 0.55500001
0.99900007 0.98350048 0.602
0.995 0.98350048 0.62400001
0.99100006 0.98350048 0.64700001
0.99600005 0.98350048 0.65600002
1.018 0.98650026 0.55500001
0.99900007 0.98650026 0.602
0.995 0.98650026 0.62400001
0.99100006 0.98650026 0.64700001
0.99600005 0.98650026 0.65600002
1.018 0.98950052 0.55500001
0.99900007 0.98950052 0.602
0.995 0.98950052 0.62400001
0.99100006 0.98950052 0.64700001
0.99600005 0.98950052 0.65600002
0.99400008 0.99250031 0.55699998
1.0040001 0.99250031 0.55800003
0.98600006 0.99250031 0.60299999
0.98800004 0.99250031 0.61799997
0.98199999 0.99250031 0.64200002
1.003 0.99250031 0.62900001
0.99400008 0.99550056 0.55699998
1.0040001 0.99550056 0.55800003
0.98600006 0.99550056 0.60299999
0.98800004 0.99550056 0.61799997
0.98199999 0.99550056 0.64200002
1.003 0.99550056 0.62900001
0.99400008 0.99850035 0.55699998
1.0040001 0.99850035 0.55800003
0.98600006 0.99850035 0.60299999
0.98800004 0.99850035 0.61799997
0.98199999 0.99850035 0.64200002
1.003 0.99850035 0.62900001
0.99400008 1.0015001 0.55699998
1.0040001 1.0015001 0.55800003
0.98600006 1.0015001 0.60299999
0.98800004 1.0015001 0.61799997
0.98199999 1.0015001 0.64200002
1.003 1.0015001 0.62900001
0.99400008 1.0045004 0.55699998
1.0040001 1.0045004 0.55800003
0.98600006 1.0045004 0.60299999
0.98800004 1.0045004 0.61799997
0.98199999 1.0045004 0.64200002
1.003 1.0045004 0.62900001
0.99400008 1.0075002 0.55699998
1.0040001 1.0075002 0.55800003
0.98600006 1.0075002 0.60299999
0.98800004 1.0075002 0.61799997
0.98199999 1.0075002 0.64200002
1.003 1.0075002 0.62900001
0.99400008 1.0105004 0.55699998
1.0040001 1.0105004 0.55800003
0.98600006 1.0105004 0.60299999
0.98800004 1.0105004 0.61799997
0.98199999 1.0105004 0.64200002
1.003 1.0105004 0.62900001
0.99400008 1.0135002 0.55699998
1.0040001 1.0135002 0.55800003
0.98600006 1.0135002 0.60299999
0.98800004 1.0135002 0.61799997
0.98199999 1.0135002 0.64200002
1.003 1.0135002 0.62900001
0.99400008 1.0165005 0.55699998
1.0040001 1.0165005 0.55800003
0.98600006 1.0165005 0.60299999
0.98800004 1.0165005 0.61799997
0.98199999 1.0165005 0.64200002
1.003 1.0165005 0.62900001
0.99400008 1.0195003 0.55699998
1.0040001 1.0195003 0.55800003
0.98600006 1.0195003 0.60299999
0.98800004 1.0195003 0.61799997
0.98199999 1.0195003 0.64200002
1.003 1.0195003 0.62900001
0.99400008 1.0225005 0.55699998
1.0040001 1.0225005 0.55800003
0.98600006 1.0225005 0.60299999
0.98800004 1.0225005 0.61799997
0.98199999 1.0225005 0.64200002
1.003 1.0225005 0.62900001
0.99400008 1.0255003 0.55699998
1.0040001 1.0255003 0.55800003
0.98600006 1.0255003 0.60299999
0.98800004 1.0255003 0.61799997
0.98199999 1.0255003 0.64200002
1.003 1.0255003 0.62900001
1.0039999 0.97149992 1.145
0.99799997 0.97149992 1.169
0.99599999 0.97149992 1.186
1.002 0.97149992 1.187
1.01 0.97149992 1.184
1.0039999 0.97449994 1.145
0.99799997 0.97449994 1.169
0.99599999 0.97449994 1.186
1.002 0.97449994 1.187
1.01 0.97449994 1.184
1.0039999 0.97749996 1.145
0.99799997 0.97749996 1.169
0.99599999 0.97749996 1.186
1.002 0.97749996 1.187
1.01 0.97749996 1.184
1.0039999 0.98049998 1.145
0.99799997 0.98049998 1.169
0.99599999 0.98049998 1.186
1.002 0.98049998 1.187
1.01 0.98049998 1.184
1.0039999 0.9835 1.145
0.99799997 0.9835 1.169
0.99599999 0.9835 1.186
1.002 0.9835 1.187
1.01 0.9835 1.184
1.0039999 0.98649991 1.145
0.99799997 0.98649991 1.169
0.99599999 0.98649991 1.186
1.002 0.98649991 1.187
1.01 0.98649991 1.184
1.0039999 0.98949993 1.145
0.99799997 0.98949993 1.169
0.99599999 0.98949993 1.186
1.002 0.98949993 1.187
1.01 0.98949993 1.184
1.0039999 0.99249995 1.145
0.99799997 0.99249995 1.169
0.99599999 0.99249995 1.186
1.002 0.99249995 1.187
1.01 0.99249995 1.184
1.0039999 0.99549997 1.145
0.99799997 0.99549997 1.169
0.99599999 0.99549997 1.186
1.002 0.99549997 1.187
1.01 0.99549997 1.184
1.0039999 0.99849999 1.145
0.99799997 0.99849999 1.169
0.99599999 0.99849999 1.186
1.002 0.99849999 1.187
1.01 0.99849999 1.184
1.0039999 1.0015 1.145
0.99799997 1.0015 1.169
0.99599999 1.0015 1.186
1.002 1.0015 1.187
1.01 1.0015 1.184
1.0039999 1.0044999 1.145
0.99799997 1.0044999 1.169
0.99599999 1.0044999 1.186
1.002 1.0044999 1.187
1.01 1.0044999 1.184
0.99199998 1.0074999 1.1799999
0.99400002 1.0074999 1.189
0.99699998 1.0074999 1.196
0.99000001 1.0074999 1.221
1.006 1.0074999 1.205
0.99199998 1.0105 1.1799999
0.99400002 1.0105 1.189
0.99699998 1.0105 1.196
0.99000001 1.0105 1.221
1.006 1.0105 1.205
0.99199998 1.0135 1.1799999
0.99400002 1.0135 1.189
0.99699998 1.0135 1.196
0.99000001 1.0135 1.221
1.006 1.0135 1.205
0.99199998 1.0165 1.1799999
0.99400002 1.0165 1.189
0.99699998 1.0165 1.196
0.99000001 1.0165 1.221
1.006 1.0165 1.205
0.99199998 1.0195 1.1799999
0.99400002 1.0195 1.189
0.99699998 1.0195 1.196
0.99000001 1.0195 1.221
1.006 1.0195 1.205
0.99199998 1.0224999 1.1799999
0.99400002 1.0224999 1.189
0.99699998 1.0224999 1.196
0.99000001 1.0224999 1.221
1.006 1.0224999 1.205
0.99199998 1.0254999 1.1799999
0.99400002 1.0254999 1.189
0.99699998 1.0254999 1.196
0.99000001 1.0254999 1.221
1.006 1.0254999 1.205
0.99199998 1.0285 1.1799999
0.99400002 1.0285 1.189
0.99699998 1.0285 1.196
0.99000001 1.0285 1.221
1.006 1.0285 1.205
0.98749995 0.97149944 1.224
1.0014999 0.97149944 1.233
1.0044999 0.97149944 1.227
1.0105 0.97149944 1.224
1.0105 0.97149944 1.2130001
0.98749995 0.97449875 1.224
1.0014999 0.97449875 1.233
1.0044999 0.97449875 1.227
1.0105 0.97449875 1.224
1.0105 0.97449875 1.2130001
0.98749995 0.97749901 1.224
1.0014999 0.97749901 1.233
1.0044999 0.97749901 1.227
1.0105 0.97749901 1.224
1.0105 0.97749901 1.2130001
0.98749995 0.98049927 1.224
1.0014999 0.98049927 1.233
1.0044999 0.98049927 1.227
1.0105 0.98049927 1.224
1.0105 0.98049927 1.2130001
0.98749995 0.98349953 1.224
1.0014999 0.98349953 1.233
1.0044999 0.98349953 1.227
1.0105 0.98349953 1.224
1.0105 0.98349953 1.2130001
0.98749995 0.98649883 1.224
1.0014999 0.98649883 1.233
1.0044999 0.98649883 1.227
1.0105 0.98649883 1.224
1.0105 0.98649883 1.2130001
0.98749995 0.98949909 1.224
1.0014999 0.98949909 1.233
1.0044999 0.98949909 1.227
1.0105 0.98949909 1.224
1.0105 0.98949909 1.2130001
0.99349993 0.99249935 1.232
0.99549991 0.99249935 1.225
1.0005 0.99249935 1.221
1.0065 0.99249935 1.2180001
1.0124999 0.99249935 1.217
0.99349993 0.99549961 1.232
0.99549991 0.99549961 1.225
1.0005 0.99549961 1.221
1.0065 0.99549961 1.2180001
1.0124999 0.99549961 1.217
0.99349993 0.99849892 1.232
0.99549991 0.99849892 1.225
1.0005 0.99849892 1.221
1.0065 0.99849892 1.2180001
1.0124999 0.99849892 1.217
0.99349993 1.0014992 1.232
0.99549991 1.0014992 1.225
1.0005 1.0014992 1.221
1.0065 1.0014992 1.2180001
1.0124999 1.0014992 1.217
0.99349993 1.0044994 1.232
0.99549991 1.0044994 1.225
1.0005 1.0044994 1.221
1.0065 1.0044994 1.2180001
1.0124999 1.0044994 1.217
0.99349993 1.0074997 1.232
0.99549991 1.0074997 1.225
1.0005 1.0074997 1.221
1.0065 1.0074997 1.2180001
1.0124999 1.0074997 1.217
0.99349993 1.010499 1.232
0.99549991 1.010499 1.225
1.0005 1.010499 1.221
1.0065 1.010499 1.2180001
1.0124999 1.010499 1.217
0.99349993 1.0134993 1.232
0.99549991 1.0134993 1.225
1.0005 1.0134993 1.221
1.0065 1.0134993 1.2180001
1.0124999 1.0134993 1.217
0.99349993 1.0164995 1.232
0.99549991 1.0164995 1.225
1.0005 1.0164995 1.221
1.0065 1.0164995 1.2180001
1.0124999 1.0164995 1.217
0.99349993 1.0194988 1.232
0.99549991 1.0194988 1.225
1.0005 1.0194988 1.221
1.0065 1.0194988 1.2180001
