# .PCD v0.7 - Point Cloud Data file format
VERSION 0.7
FIELDS x y z
SIZE 4 4 4
TYPE F F F
COUNT 1 1 1
WIDTH 1044
HEIGHT 1
VIEWPOINT 0 0 0 1 0 0 0
POINTS 1044
DATA ascii
0 0 0
0 0.1 -1.5
0 0.2 -1.5
0 0.30000001 -1.5
0 0.40000001 -1.5
0 0.5 0.050000001
0 0.60000002 0.033333335
0 0.69999999 0.037500001
0 0.80000001 0.039999999
0 0.89999998 0.039999999
0 1 0.039999999
0 1.1 0.060000002
0 1.2 0.07
0 1.3 0.079999998
0 1.4 0.090000004
0 1.5 0.07
0 1.6 0.050000001
0 1.7 0.050000001
0 1.8 0.030000001
0 1.9 0.02
0 2 0.02
0 2.0999999 0.039999999
0 2.2 0.02
0 2.3 0.039999999
0 2.4000001 0.060000002
0 2.5 0.079999998
0 2.5999999 0.060000002
0 2.7 0.060000002
0 2.8 0.039999999
0 2.9000001 0.02
0 3 0
0 3.0999999 0.0099999998
0 3.2 0.030000001
0 3.3 0.030000001
0 3.4000001 0.030000001
0 3.5 0.030000001
0.1 0 0
0.1 0.1 -1.5
0.1 0.2 -1.5
0.1 0.30000001 -1.5
0.1 0.40000001 -1.5
0.1 0.5 0.1
0.1 0.60000002 0.13333334
0.1 0.69999999 0.15000001
0.1 0.80000001 0.16
0.1 0.89999998 0.2
0.1 1 0.18000001
0.1 1.1 0.18000001
0.1 1.2 0.18000001
0.1 1.3 0.18000001
0.1 1.4 0.16
0.1 1.5 0.18000001
0.1 1.6 0.18000001
0.1 1.7 0.18000001
0.1 1.8 0.18000001
0.1 1.9 0.2
0.1 2 0.2
0.1 2.0999999 0.2
0.1 2.2 0.2
0.1 2.3 0.2
0.1 2.4000001 0.2
0.1 2.5 0.2
0.1 2.5999999 0.2
0.1 2.7 0.2
0.1 2.8 0.2
0.1 2.9000001 0.2
0.1 3 0.2
0.1 3.0999999 0.18000001
0.1 3.2 0.18000001
0.1 3.3 0.18000001
0.1 3.4000001 0.18000001
0.1 3.5 0.18000001
0.2 0 0.30000001
0.2 0.1 -1.5
0.2 0.2 -1.5
0.2 0.30000001 -1.5
0.2 0.40000001 -1.5
0.2 0.5 0.30000001
0.2 0.60000002 0.30000001
0.2 0.69999999 0.30000001
0.2 0.80000001 0.30000001
0.2 0.89999998 0.30000001
0.2 1 0.30000001
0.2 1.1 0.30000001
0.2 1.2 0.30000001
0.2 1.3 0.30000001
0.2 1.4 0.30000001
0.2 1.5 0.30000001
0.2 1.6 0.30000001
0.2 1.7 0.30000001
0.2 1.8 0.32000002
0.2 1.9 0.32000002
0.2 2 0.32000002
0.2 2.0999999 0.32000002
0.2 2.2 0.32000002
0.2 2.3 0.30000001
0.2 2.4000001 0.30000001
0.2 2.5 0.30000001
0.2 2.5999999 0.32000002
0.2 2.7 0.34
0.2 2.8 0.34
0.2 2.9000001 0.36000001
0.2 3 0.36000001
0.2 3.0999999 0.34
0.2 3.2 0.34
0.2 3.3 0.34
0.2 3.4000001 0.32000002
0.2 3.5 0.32000002
0.30000001 0 0.2
0.30000001 0.1 -1.5
0.30000001 0.2 -1.5
0.30000001 0.30000001 -1.5
0.30000001 0.40000001 -1.5
0.30000001 0.5 0.34999999
0.30000001 0.60000002 0.40000001
0.30000001 0.69999999 0.42500001
0.30000001 0.80000001 0.44
0.30000001 0.89999998 0.5
0.30000001 1 0.5
0.30000001 1.1 0.5
0.30000001 1.2 0.5
0.30000001 1.3 0.5
0.30000001 1.4 0.5
0.30000001 1.5 0.5
0.30000001 1.6 0.5
0.30000001 1.7 0.5
0.30000001 1.8 0.5
0.30000001 1.9 0.5
0.30000001 2 0.5
0.30000001 2.0999999 0.5
0.30000001 2.2 0.5
0.30000001 2.3 0.5
0.30000001 2.4000001 0.5
0.30000001 2.5 0.5
0.30000001 2.5999999 0.5
0.30000001 2.7 0.5
0.30000001 2.8 0.5
0.30000001 2.9000001 0.5
0.30000001 3 0.5
0.30000001 3.0999999 0.5
0.30000001 3.2 0.5
0.30000001 3.3 0.5
0.30000001 3.4000001 0.5
0.30000001 3.5 0.5
0.40000001 0 0.1
0.40000001 0.1 -1.5
0.40000001 0.2 -1.5
0.40000001 0.30000001 -1.5
0.40000001 0.40000001 -1.5
0.40000001 0.5 0.35000002
0.40000001 0.60000002 0.43333334
0.40000001 0.69999999 0.47500002
0.40000001 0.80000001 0.5
0.40000001 0.89999998 0.60000002
0.40000001 1 0.60000002
0.40000001 1.1 0.60000002
0.40000001 1.2 0.60000002
0.40000001 1.3 0.60000002
0.40000001 1.4 0.60000002
0.40000001 1.5 0.60000002
0.40000001 1.6 0.60000002
0.40000001 1.7 0.60000002
0.40000001 1.8 0.60000002
0.40000001 1.9 0.60000002
0.40000001 2 0.60000002
0.40000001 2.0999999 0.60000002
0.40000001 2.2 0.60000002
0.40000001 2.3 0.60000002
0.40000001 2.4000001 0.60000002
0.40000001 2.5 0.60000002
0.40000001 2.5999999 0.60000002
0.40000001 2.7 0.60000002
0.40000001 2.8 0.60000002
0.40000001 2.9000001 0.60000002
0.40000001 3 0.60000002
0.40000001 3.0999999 0.60000002
0.40000001 3.2 0.60000002
0.40000001 3.3 0.60000002
0.40000001 3.4000001 0.60000002
0.40000001 3.5 0.60000002
0.5 0 -1.5
0.5 0.1 -1.5
0.5 0.2 -1.5
0.5 0.30000001 -1.5
0.5 0.40000001 -1.5
0.5 0.5 0.80000001
0.5 0.60000002 0.80000001
0.5 0.69999999 0.80000001
0.5 0.80000001 0.80000001
0.5 0.89999998 0.80000001
0.5 1 0.80000001
0.5 1.1 0.80000001
0.5 1.2 0.80000001
0.5 1.3 0.80000001
0.5 1.4 0.80000001
0.5 1.5 0.78000003
0.5 1.6 0.78000003
0.5 1.7 0.78000003
0.5 1.8 0.74000001
0.5 1.9 0.74000001
0.5 2 0.75999999
0.5 2.0999999 0.75999999
0.5 2.2 0.75999999
0.5 2.3 0.80000001
0.5 2.4000001 0.80000001
0.5 2.5 0.80000001
0.5 2.5999999 0.80000001
0.5 2.7 0.80000001
0.5 2.8 0.80000001
0.5 2.9000001 0.78000003
0.5 3 0.78000003
0.5 3.0999999 0.75999999
0.5 3.2 0.75999999
0.5 3.3 0.75999999
0.5 3.4000001 0.75999999
0.5 3.5 0.75999999
0.60000002 0 -1.5
0.60000002 0.1 -1.5
0.60000002 0.2 -1.5
0.60000002 0.30000001 -1.5
0.60000002 0.40000001 -1.5
0.60000002 0.5 0.89999998
0.60000002 0.60000002 0.89999998
0.60000002 0.69999999 0.89999998
0.60000002 0.80000001 0.89999998
0.60000002 0.89999998 0.89999998
0.60000002 1 0.89999998
0.60000002 1.1 0.89999998
0.60000002 1.2 0.89999998
0.60000002 1.3 0.89999998
0.60000002 1.4 0.89999998
0.60000002 1.5 0.89999998
0.60000002 1.6 0.88
0.60000002 1.7 0.88
0.60000002 1.8 0.86000001
0.60000002 1.9 0.86000001
0.60000002 2 0.86000001
0.60000002 2.0999999 0.88
0.60000002 2.2 0.88
0.60000002 2.3 0.89999998
0.60000002 2.4000001 0.89999998
0.60000002 2.5 0.89999998
0.60000002 2.5999999 0.89999998
0.60000002 2.7 0.89999998
0.60000002 2.8 0.89999998
0.60000002 2.9000001 0.89999998
0.60000002 3 0.89999998
0.60000002 3.0999999 0.83999997
0.60000002 3.2 0.83999997
0.60000002 3.3 0.83999997
0.60000002 3.4000001 0.83999997
0.60000002 3.5 0.83999997
0.69999999 0 -1.5
0.69999999 0.1 -1.5
0.69999999 0.2 -1.5
0.69999999 0.30000001 -1.5
0.69999999 0.40000001 -1.5
0.69999999 0.5 1
0.69999999 0.60000002 1
0.69999999 0.69999999 1
0.69999999 0.80000001 1
0.69999999 0.89999998 1.02
0.69999999 1 1
0.69999999 1.1 1
0.69999999 1.2 0.98000002
0.69999999 1.3 0.98000002
0.69999999 1.4 0.98000002
0.69999999 1.5 1.02
0.69999999 1.6 1.02
0.69999999 1.7 1.04
0.69999999 1.8 1
0.69999999 1.9 0.98000002
0.69999999 2 0.95999998
0.69999999 2.0999999 0.94
0.69999999 2.2 0.95999998
0.69999999 2.3 0.98000002
0.69999999 2.4000001 0.98000002
0.69999999 2.5 1
0.69999999 2.5999999 1.02
0.69999999 2.7 1
0.69999999 2.8 1.04
0.69999999 2.9000001 1.04
0.69999999 3 1.02
0.69999999 3.0999999 0.98000002
0.69999999 3.2 0.98000002
0.69999999 3.3 0.95999998
0.69999999 3.4000001 0.94
0.69999999 3.5 0.95999998
0.80000001 0 -1.5
0.80000001 0.1 -1.5
0.80000001 0.2 -1.5
0.80000001 0.30000001 -1.5
0.80000001 0.40000001 -1.5
0.80000001 0.5 1
0.80000001 0.60000002 1
0.80000001 0.69999999 1
0.80000001 0.80000001 1
0.80000001 0.89999998 1.02
0.80000001 1 1
0.80000001 1.1 1.04
0.80000001 1.2 1.02
0.80000001 1.3 1.0600001
0.80000001 1.4 1.08
0.80000001 1.5 1.12
0.80000001 1.6 1.1
0.80000001 1.7 1.14
0.80000001 1.8 1.1
0.80000001 1.9 1.08
0.80000001 2 1.08
0.80000001 2.0999999 1.08
0.80000001 2.2 1.0600001
0.80000001 2.3 1.04
0.80000001 2.4000001 1.02
0.80000001 2.5 1.04
0.80000001 2.5999999 1.0600001
0.80000001 2.7 1.08
0.80000001 2.8 1.14
0.80000001 2.9000001 1.12
0.80000001 3 1.1
0.80000001 3.0999999 1.02
0.80000001 3.2 1.02
0.80000001 3.3 1
0.80000001 3.4000001 1.0600001
0.80000001 3.5 1.0600001
0.89999998 0 -1.5
0.89999998 0.1 -1.5
0.89999998 0.2 -1.5
0.89999998 0.30000001 -1.5
0.89999998 0.40000001 -1.5
0.89999998 0.5 0.80000001
0.89999998 0.60000002 1.05
0.89999998 0.69999999 1.0666666
0.89999998 0.80000001 1.075
0.89999998 0.89999998 1.08
0.89999998 1 1.1
0.89999998 1.1 1.08
0.89999998 1.2 1.08
0.89999998 1.3 1.12
0.89999998 1.4 1.14
0.89999998 1.5 1.1800001
0.89999998 1.6 1.1800001
0.89999998 1.7 1.1800001
0.89999998 1.8 1.14
0.89999998 1.9 1.12
0.89999998 2 1.14
0.89999998 2.0999999 1.14
0.89999998 2.2 1.1600001
0.89999998 2.3 1.12
0.89999998 2.4000001 1.1
0.89999998 2.5 1.12
0.89999998 2.5999999 1.14
0.89999998 2.7 1.1
0.89999998 2.8 1.1799999
0.89999998 2.9000001 1.1999999
0.89999998 3 1.1799999
0.89999998 3.0999999 1.1799999
0.89999998 3.2 1.22
0.89999998 3.3 1.14
0.89999998 3.4000001 1.16
0.89999998 3.5 1.1799999
1 0 -1.5
1 0.1 -1.5
1 0.2 -1.5
1 0.30000001 -1.5
1 0.40000001 -1.5
1 0.5 0.69999999
1 0.60000002 1.05
1 0.69999999 1.1333333
1 0.80000001 1.175
1 0.89999998 1.22
1 1 1.26
1 1.1 1.22
1 1.2 1.22
1 1.3 1.22
1 1.4 1.1999999
1 1.5 1.26
1 1.6 1.28
1 1.7 1.28
1 1.8 1.26
1 1.9 1.22
1 2 1.22
1 2.0999999 1.12
1 2.2 1.08
1 2.3 1.0600001
1 2.4000001 1.0600001
1 2.5 1.12
1 2.5999999 1.22
1 2.7 1.1799999
1 2.8 1.2
1 2.9000001 1.2
1 3 1.16
1 3.0999999 1.16
1 3.2 1.16
1 3.3 1.04
1 3.4000001 1.1
1 3.5 0.97999996
1.1 0 -1.5
1.1 0.1 -1.5
1.1 0.2 -1.5
1.1 0.30000001 -1.5
1.1 0.40000001 -1.5
1.1 0.5 0.60000002
1.1 0.60000002 1
1.1 0.69999999 1.0666667
1.1 0.80000001 1.125
1.1 0.89999998 1.16
1.1 1 1.24
1.1 1.1 1.24
1.1 1.2 1.3
1.1 1.3 1.3199999
1.1 1.4 1.3
1.1 1.5 1.38
1.1 1.6 1.38
1.1 1.7 1.36
1.1 1.8 1.34
1.1 1.9 1.34
1.1 2 1.3199999
1.1 2.0999999 1.26
1.1 2.2 1.22
1.1 2.3 1.24
1.1 2.4000001 1.24
1.1 2.5 1.22
1.1 2.5999999 1.28
1.1 2.7 1.3200001
1.1 2.8 1.28
1.1 2.9000001 1.28
1.1 3 1.34
1.1 3.0999999 1.38
1.1 3.2 1.28
1.1 3.3 1.24
1.1 3.4000001 1.16
1.1 3.5 1.02
1.2 0 -1.5
1.2 0.1 -1.5
1.2 0.2 -1.5
1.2 0.30000001 -1.5
1.2 0.40000001 0.40000001
1.2 0.5 1.0500001
1.2 0.60000002 1.1
1.2 0.69999999 1.15
1.2 0.80000001 1.1799999
1.2 0.89999998 1.4
1.2 1 1.26
1.2 1.1 1.3199999
1.2 1.2 1.3199999
1.2 1.3 1.36
1.2 1.4 1.38
1.2 1.5 1.46
1.2 1.6 1.4399999
1.2 1.7 1.48
1.2 1.8 1.42
1.2 1.9 1.36
1.2 2 1.38
1.2 2.0999999 1.36
1.2 2.2 1.28
1.2 2.3 1.3199999
1.2 2.4000001 1.3
1.2 2.5 1.24
1.2 2.5999999 1.3000001
1.2 2.7 1.34
1.2 2.8 1.36
1.2 2.9000001 1.4
1.2 3 1.48
1.2 3.0999999 1.34
1.2 3.2 1.26
1.2 3.3 1.14
1.2 3.4000001 1.04
1.2 3.5 0.89999998
1.3 0 -1.5
1.3 0.1 -1.5
1.3 0.2 -1.5
1.3 0.30000001 0.2
1.3 0.40000001 0.30000001
1.3 0.5 0.53333336
1.3 0.60000002 0.75
1.3 0.69999999 0.88
1.3 0.80000001 1.12
1.3 0.89999998 1.3199999
1.3 1 1.38
1.3 1.1 1.42
1.3 1.2 1.4
1.3 1.3 1.42
1.3 1.4 1.4399999
1.3 1.5 1.46
1.3 1.6 1.4399999
1.3 1.7 1.48
1.3 1.8 1.48
1.3 1.9 1.4399999
1.3 2 1.46
1.3 2.0999999 1.42
1.3 2.2 1.34
1.3 2.3 1.3
1.3 2.4000001 1.3
1.3 2.5 1.3
1.3 2.5999999 1.36
1.3 2.7 1.4399999
1.3 2.8 1.48
1.3 2.9000001 1.54
1.3 3 1.5600001
1.3 3.0999999 1.52
1.3 3.2 1.4400001
1.3 3.3 1.3200001
1.3 3.4000001 1.2
1.3 3.5 1.08
1.4 0 -1.5
1.4 0.1 -1.5
1.4 0.2 -1.5
1.4 0.30000001 0.30000001
1.4 0.40000001 0.40000001
1.4 0.5 0.60000002
1.4 0.60000002 0.72500002
1.4 0.69999999 0.81999999
1.4 0.80000001 1.04
1.4 0.89999998 1.26
1.4 1 1.36
1.4 1.1 1.4400001
1.4 1.2 1.52
1.4 1.3 1.5600001
1.4 1.4 1.52
1.4 1.5 1.5
1.4 1.6 1.48
1.4 1.7 1.46
1.4 1.8 1.3199999
1.4 1.9 1.3
1.4 2 1.3
1.4 2.0999999 1.26
1.4 2.2 1.2
1.4 2.3 1.3200001
1.4 2.4000001 1.3200001
1.4 2.5 1.36
1.4 2.5999999 1.4400001
1.4 2.7 1.52
1.4 2.8 1.52
1.4 2.9000001 1.58
1.4 3 1.58
1.4 3.0999999 1.5600001
1.4 3.2 1.46
1.4 3.3 1.36
1.4 3.4000001 1.28
1.4 3.5 1.1800001
1.5 0 2
1.5 0.1 -1.5
1.5 0.2 1.65
1.5 0.30000001 1.2666667
1.5 0.40000001 1.1
1.5 0.5 1.14
1.5 0.60000002 1.02
1.5 0.69999999 1.02
1.5 0.80000001 1.22
1.5 0.89999998 1.36
1.5 1 1.38
1.5 1.1 1.38
1.5 1.2 1.38
1.5 1.3 1.28
1.5 1.4 1.3199999
1.5 1.5 1.28
1.5 1.6 1.3200001
1.5 1.7 1.34
1.5 1.8 1.34
1.5 1.9 1.28
1.5 2 1.3200001
1.5 2.0999999 1.24
1.5 2.2 1.24
1.5 2.3 1.26
1.5 2.4000001 1.26
1.5 2.5 1.3000001
1.5 2.5999999 1.36
1.5 2.7 1.4
1.5 2.8 1.46
1.5 2.9000001 1.5
1.5 3 1.48
1.5 3.0999999 1.46
1.5 3.2 1.36
1.5 3.3 1.26
1.5 3.4000001 1.2
1.5 3.5 1.1
1.6 0 -1.5
1.6 0.1 -1.5
1.6 0.2 -1.5
1.6 0.30000001 0.5
1.6 0.40000001 0.5
1.6 0.5 0.66666669
1.6 0.60000002 0.80000001
1.6 0.69999999 0.88
1.6 0.80000001 1.04
1.6 0.89999998 1.2
1.6 1 1.28
1.6 1.1 1.34
1.6 1.2 1.3199999
1.6 1.3 1.24
1.6 1.4 1.28
1.6 1.5 1.28
1.6 1.6 1.28
1.6 1.7 1.38
1.6 1.8 1.46
1.6 1.9 1.38
1.6 2 1.36
1.6 2.0999999 1.3
1.6 2.2 1.2
1.6 2.3 1.14
1.6 2.4000001 1.16
1.6 2.5 1.22
1.6 2.5999999 1.26
1.6 2.7 1.36
1.6 2.8 1.42
1.6 2.9000001 1.48
1.6 3 1.48
1.6 3.0999999 1.5
1.6 3.2 1.42
1.6 3.3 1.34
1.6 3.4000001 1.24
1.6 3.5 1.12
1.7 0 -1.5
1.7 0.1 -1.5
1.7 0.2 -1.5
1.7 0.30000001 0.30000001
1.7 0.40000001 0.35000002
1.7 0.5 0.56666666
1.7 0.60000002 0.69999999
1.7 0.69999999 0.81999999
1.7 0.80000001 0.98000002
1.7 0.89999998 1.1
1.7 1 1.16
1.7 1.1 1.26
1.7 1.2 1.2
1.7 1.3 1.2
1.7 1.4 1.28
1.7 1.5 1.34
1.7 1.6 1.16
1.7 1.7 1.26
1.7 1.8 1.3199999
1.7 1.9 1.16
1.7 2 1.08
1.7 2.0999999 1.16
1.7 2.2 1.08
1.7 2.3 1.08
1.7 2.4000001 1.1800001
1.7 2.5 1.26
1.7 2.5999999 1.3
1.7 2.7 1.36
1.7 2.8 1.36
1.7 2.9000001 1.38
1.7 3 1.36
1.7 3.0999999 1.36
1.7 3.2 1.3200001
1.7 3.3 1.2
1.7 3.4000001 1.1800001
1.7 3.5 1.08
1.8 0 -1.5
1.8 0.1 -1.5
1.8 0.2 -1.5
1.8 0.30000001 0.30000001
1.8 0.40000001 0.40000001
1.8 0.5 0.60000002
1.8 0.60000002 0.72500002
1.8 0.69999999 0.81999999
1.8 0.80000001 0.96000004
1.8 0.89999998 1.0600001
1.8 1 1.08
1.8 1.1 1.16
1.8 1.2 1.1799999
1.8 1.3 1.26
1.8 1.4 1.36
1.8 1.5 1.4399999
1.8 1.6 1.4
1.8 1.7 1.36
1.8 1.8 1.3
1.8 1.9 1.16
1.8 2 1.12
1.8 2.0999999 1.04
1.8 2.2 1.02
1.8 2.3 0.97999996
1.8 2.4000001 1.1
1.8 2.5 1.16
1.8 2.5999999 1.2
1.8 2.7 1.28
1.8 2.8 1.3
1.8 2.9000001 1.26
1.8 3 1.26
1.8 3.0999999 1.26
1.8 3.2 1.1800001
1.8 3.3 1.14
1.8 3.4000001 1.0600001
1.8 3.5 0.92000002
1.9 0 -1.5
1.9 0.1 -1.5
1.9 0.2 -1.5
1.9 0.30000001 -1.5
1.9 0.40000001 0.40000001
1.9 0.5 0.64999998
1.9 0.60000002 0.89999998
1.9 0.69999999 0.89999998
1.9 0.80000001 1
1.9 0.89999998 1.12
1.9 1 1.22
1.9 1.1 1.1799999
1.9 1.2 1.26
1.9 1.3 1.26
1.9 1.4 1.28
1.9 1.5 1.22
1.9 1.6 1.22
1.9 1.7 1.14
1.9 1.8 1.08
1.9 1.9 1.04
1.9 2 1.08
1.9 2.0999999 1.0599999
1.9 2.2 1.08
1.9 2.3 1.02
1.9 2.4000001 1.04
1.9 2.5 1.08
1.9 2.5999999 1.12
1.9 2.7 1.16
1.9 2.8 1.2
1.9 2.9000001 1.22
1.9 3 1.1799999
1.9 3.0999999 1.2
1.9 3.2 1.14
1.9 3.3 1.0799999
1.9 3.4000001 1
1.9 3.5 0.86000001
2 0 -1.5
2 0.1 -1.5
2 0.2 -1.5
2 0.30000001 -1.5
2 0.40000001 0.30000001
2 0.5 0.75
2 0.60000002 0.93333334
2 0.69999999 0.97500002
2 0.80000001 1
2 0.89999998 1.16
2 1 1.14
2 1.1 1.12
2 1.2 1.14
2 1.3 1.1800001
2 1.4 1.22
2 1.5 1.24
2 1.6 1.2
2 1.7 1.14
2 1.8 1.12
2 1.9 1.1
2 2 1.08
2 2.0999999 1.16
2 2.2 1.22
2 2.3 1.2
2 2.4000001 1.16
2 2.5 1.1800001
2 2.5999999 1.16
2 2.7 1.16
2 2.8 1.14
2 2.9000001 1.14
2 3 1.08
2 3.0999999 1.0600001
2 3.2 1.08
2 3.3 1.04
2 3.4000001 1
2 3.5 1.1
2.0999999 0 -1.5
2.0999999 0.1 -1.5
2.0999999 0.2 -1.5
2.0999999 0.30000001 -1.5
2.0999999 0.40000001 0
2.0999999 0.5 0.5
2.0999999 0.60000002 0.69999999
2.0999999 0.69999999 0.82500005
2.0999999 0.80000001 0.88
2.0999999 0.89999998 1.1
2.0999999 1 1.12
2.0999999 1.1 1.12
2.0999999 1.2 1.08
2.0999999 1.3 1.1
2.0999999 1.4 1.08
2.0999999 1.5 1.1
2.0999999 1.6 1.08
2.0999999 1.7 1.08
2.0999999 1.8 1.0600001
2.0999999 1.9 1.1
2.0999999 2 1.08
2.0999999 2.0999999 1.12
2.0999999 2.2 1.1600001
2.0999999 2.3 1.1800001
2.0999999 2.4000001 1.1600001
2.0999999 2.5 1.1600001
2.0999999 2.5999999 1.1600001
2.0999999 2.7 1.14
2.0999999 2.8 1.1
2.0999999 2.9000001 1.1
2.0999999 3 1.12
2.0999999 3.0999999 1.1
2.0999999 3.2 1.1
2.0999999 3.3 1.1
2.0999999 3.4000001 1.08
2.0999999 3.5 1.0600001
2.2 0 -1.5
2.2 0.1 -1.5
2.2 0.2 -1.5
2.2 0.30000001 -1.5
2.2 0.40000001 0.25
2.2 0.5 0.57499999
2.2 0.60000002 0.71666664
2.2 0.69999999 0.78750002
2.2 0.80000001 0.82999998
2.2 0.89999998 1
2.2 1 1.02
2.2 1.1 1.04
2.2 1.2 1.04
2.2 1.3 1.0600001
2.2 1.4 1.0600001
2.2 1.5 1.08
2.2 1.6 1.02
2.2 1.7 1.02
2.2 1.8 1.02
2.2 1.9 1.02
2.2 2 1.02
2.2 2.0999999 1.08
2.2 2.2 1.1
2.2 2.3 1.1
2.2 2.4000001 1.1
2.2 2.5 1.1
2.2 2.5999999 1.1
2.2 2.7 1.1
2.2 2.8 1.08
2.2 2.9000001 1.0600001
2.2 3 1.0600001
2.2 3.0999999 1
2.2 3.2 1
2.2 3.3 1
2.2 3.4000001 1
2.2 3.5 0.95999998
2.3 0 -1.5
2.3 0.1 -1.5
2.3 0.2 -1.5
2.3 0.30000001 -1.5
2.3 0.40000001 0.2
2.3 0.5 0.55000001
2.3 0.60000002 0.66666663
2.3 0.69999999 0.72499996
2.3 0.80000001 0.75999999
2.3 0.89999998 0.89999998
2.3 1 0.89999998
2.3 1.1 0.91999996
2.3 1.2 0.94
2.3 1.3 0.95999998
2.3 1.4 0.98000002
2.3 1.5 1
2.3 1.6 0.98000002
2.3 1.7 0.98000002
2.3 1.8 0.95999998
2.3 1.9 0.94
2.3 2 0.94
2.3 2.0999999 0.94
2.3 2.2 0.94
2.3 2.3 0.94
2.3 2.4000001 0.94
2.3 2.5 0.91999996
2.3 2.5999999 0.94
2.3 2.7 0.94
2.3 2.8 0.95999998
2.3 2.9000001 0.95999998
2.3 3 0.95999998
2.3 3.0999999 0.89999998
2.3 3.2 0.89999998
2.3 3.3 0.88
2.3 3.4000001 0.89999998
2.3 3.5 0.89999998
2.4000001 0 -1.5
2.4000001 0.1 -1.5
2.4000001 0.2 -1.5
2.4000001 0.30000001 0.40000001
2.4000001 0.40000001 0.30000001
2.4000001 0.5 0.46666667
2.4000001 0.60000002 0.55000001
2.4000001 0.69999999 0.60000002
2.4000001 0.80000001 0.68000001
2.4000001 0.89999998 0.80000001
2.4000001 1 0.80000001
2.4000001 1.1 0.80000001
2.4000001 1.2 0.80000001
2.4000001 1.3 0.80000001
2.4000001 1.4 0.80000001
2.4000001 1.5 0.80000001
2.4000001 1.6 0.78000003
2.4000001 1.7 0.78000003
2.4000001 1.8 0.75999999
2.4000001 1.9 0.75999999
2.4000001 2 0.75999999
2.4000001 2.0999999 0.78000003
2.4000001 2.2 0.78000003
2.4000001 2.3 0.80000001
2.4000001 2.4000001 0.80000001
2.4000001 2.5 0.80000001
2.4000001 2.5999999 0.80000001
2.4000001 2.7 0.80000001
2.4000001 2.8 0.80000001
2.4000001 2.9000001 0.80000001
2.4000001 3 0.80000001
2.4000001 3.0999999 0.78000003
2.4000001 3.2 0.78000003
2.4000001 3.3 0.78000003
2.4000001 3.4000001 0.78000003
2.4000001 3.5 0.78000003
2.5 0 -1.5
2.5 0.1 -1.5
2.5 0.2 -1.5
2.5 0.30000001 0.40000001
2.5 0.40000001 0.40000001
2.5 0.5 0.5
2.5 0.60000002 0.55000001
2.5 0.69999999 0.57999998
2.5 0.80000001 0.63999999
2.5 0.89999998 0.69999999
2.5 1 0.69999999
2.5 1.1 0.69999999
2.5 1.2 0.69999999
2.5 1.3 0.69999999
2.5 1.4 0.69999999
2.5 1.5 0.69999999
2.5 1.6 0.69999999
2.5 1.7 0.69999999
2.5 1.8 0.69999999
2.5 1.9 0.68000001
2.5 2 0.68000001
2.5 2.0999999 0.68000001
2.5 2.2 0.68000001
2.5 2.3 0.66000003
2.5 2.4000001 0.68000001
2.5 2.5 0.68000001
2.5 2.5999999 0.68000001
2.5 2.7 0.68000001
2.5 2.8 0.69999999
2.5 2.9000001 0.69999999
2.5 3 0.69999999
2.5 3.0999999 0.69999999
2.5 3.2 0.69999999
2.5 3.3 0.69999999
2.5 3.4000001 0.69999999
2.5 3.5 0.69999999
2.5999999 0 -1.5
2.5999999 0.1 -1.5
2.5999999 0.2 -1.5
2.5999999 0.30000001 0.5
2.5999999 0.40000001 0.44999999
2.5999999 0.5 0.46666667
2.5999999 0.60000002 0.47499999
2.5999999 0.69999999 0.47999999
2.5999999 0.80000001 0.47999999
2.5999999 0.89999998 0.5
2.5999999 1 0.5
2.5999999 1.1 0.5
2.5999999 1.2 0.5
2.5999999 1.3 0.5
2.5999999 1.4 0.5
2.5999999 1.5 0.5
2.5999999 1.6 0.5
2.5999999 1.7 0.5
2.5999999 1.8 0.5
2.5999999 1.9 0.5
2.5999999 2 0.5
2.5999999 2.0999999 0.5
2.5999999 2.2 0.5
2.5999999 2.3 0.5
2.5999999 2.4000001 0.5
2.5999999 2.5 0.5
2.5999999 2.5999999 0.5
2.5999999 2.7 0.5
2.5999999 2.8 0.5
2.5999999 2.9000001 0.5
2.5999999 3 0.5
2.5999999 3.0999999 0.5
2.5999999 3.2 0.5
2.5999999 3.3 0.5
2.5999999 3.4000001 0.5
2.5999999 3.5 0.5
2.7 0 -1.5
2.7 0.1 -1.5
2.7 0.2 -1.5
2.7 0.30000001 0.40000001
2.7 0.40000001 0.40000001
2.7 0.5 0.40000001
2.7 0.60000002 0.40000001
2.7 0.69999999 0.40000001
2.7 0.80000001 0.40000001
2.7 0.89999998 0.40000001
2.7 1 0.40000001
2.7 1.1 0.40000001
2.7 1.2 0.40000001
2.7 1.3 0.40000001
2.7 1.4 0.40000001
2.7 1.5 0.40000001
2.7 1.6 0.40000001
2.7 1.7 0.40000001
2.7 1.8 0.40000001
2.7 1.9 0.40000001
2.7 2 0.40000001
2.7 2.0999999 0.40000001
2.7 2.2 0.40000001
2.7 2.3 0.40000001
2.7 2.4000001 0.40000001
2.7 2.5 0.38
2.7 2.5999999 0.38
2.7 2.7 0.38
2.7 2.8 0.38
2.7 2.9000001 0.38
2.7 3 0.40000001
2.7 3.0999999 0.40000001
2.7 3.2 0.40000001
2.7 3.3 0.40000001
2.7 3.4000001 0.40000001
2.7 3.5 0.40000001
2.8 0 -1.5
2.8 0.1 -1.5
2.8 0.2 -1.5
2.8 0.30000001 0.2
2.8 0.40000001 0.2
2.8 0.5 0.2
2.8 0.60000002 0.2
2.8 0.69999999 0.2
2.8 0.80000001 0.22
2.8 0.89999998 0.22
2.8 1 0.22
2.8 1.1 0.24000001
2.8 1.2 0.24000001
2.8 1.3 0.22
2.8 1.4 0.22
2.8 1.5 0.24000001
2.8 1.6 0.22
2.8 1.7 0.22
2.8 1.8 0.22
2.8 1.9 0.22
2.8 2 0.22
2.8 2.0999999 0.24000001
2.8 2.2 0.26000002
2.8 2.3 0.26000002
2.8 2.4000001 0.26000002
2.8 2.5 0.22
2.8 2.5999999 0.2
2.8 2.7 0.18000001
2.8 2.8 0.18000001
2.8 2.9000001 0.18000001
2.8 3 0.2
2.8 3.0999999 0.2
2.8 3.2 0.2
2.8 3.3 0.2
2.8 3.4000001 0.2
2.8 3.5 0.2
