# .PCD v0.7 - Point Cloud Data file format
VERSION 0.7
FIELDS x y z
SIZE 4 4 4
TYPE F F F
COUNT 1 1 1
WIDTH 527
HEIGHT 1
VIEWPOINT 0 0 0 1 0 0 0
POINTS 527
DATA ascii
0.1 0 0.029999999
0.092718385 0.037460659 0.059999999
0.071933985 0.069465838 0.07
0.040673666 0.091354549 0.050000001
0.00348995 0.099939086 0.029999999
-0.034202013 0.093969263 0.050000001
-0.066913061 0.074314483 0.059999999
-0.089879408 0.043837115 0.02
-0.099756405 0.006975648 0.090000004
-0.095105655 -0.0309017 0.0099999998
-0.076604448 -0.064278759 0.02
-0.046947159 -0.088294759 0.07
-0.010452847 -0.09945219 0
0.027563736 -0.096126169 0.090000004
0.061566148 -0.078801081 0.029999999
0.086602539 -0.050000001 0.059999999
0.099026807 -0.013917311 0
0.1 0 0.16
0.092718385 0.037460659 0.12
0.071933985 0.069465838 0.16
0.040673666 0.091354549 0.11
0.00348995 0.099939086 0.18000001
-0.034202013 0.093969263 0.17
-0.066913061 0.074314483 0.19
-0.089879408 0.043837115 0.12
-0.099756405 0.006975648 0.1
-0.095105655 -0.0309017 0.12
-0.076604448 -0.064278759 0.13
-0.046947159 -0.088294759 0.17
-0.010452847 -0.09945219 0.15000001
0.027563736 -0.096126169 0.19
0.061566148 -0.078801081 0.12
0.086602539 -0.050000001 0.12
0.099026807 -0.013917311 0.18000001
0.1 0 0.29000002
0.092718385 0.037460659 0.27000001
0.071933985 0.069465838 0.23
0.040673666 0.091354549 0.25999999
0.00348995 0.099939086 0.21000001
-0.034202013 0.093969263 0.22
-0.066913061 0.074314483 0.29000002
-0.089879408 0.043837115 0.23
-0.099756405 0.006975648 0.21000001
-0.095105655 -0.0309017 0.29000002
-0.076604448 -0.064278759 0.24000001
-0.046947159 -0.088294759 0.27000001
-0.010452847 -0.09945219 0.28
0.027563736 -0.096126169 0.24000001
0.061566148 -0.078801081 0.25
0.086602539 -0.050000001 0.2
0.099026807 -0.013917311 0.23
0.1 0 0.36000001
0.092718385 0.037460659 0.31
0.071933985 0.069465838 0.30000001
0.040673666 0.091354549 0.36000001
0.00348995 0.099939086 0.33000001
-0.034202013 0.093969263 0.32000002
-0.066913061 0.074314483 0.30000001
-0.089879408 0.043837115 0.36000001
-0.099756405 0.006975648 0.31
-0.095105655 -0.0309017 0.35000002
-0.076604448 -0.064278759 0.35000002
-0.046947159 -0.088294759 0.34
-0.010452847 -0.09945219 0.37
0.027563736 -0.096126169 0.36000001
0.061566148 -0.078801081 0.35000002
0.086602539 -0.050000001 0.36000001
0.099026807 -0.013917311 0.39000002
0.1 0 0.43000001
0.092718385 0.037460659 0.47
0.071933985 0.069465838 0.44
0.040673666 0.091354549 0.45000002
0.00348995 0.099939086 0.42000002
-0.034202013 0.093969263 0.45000002
-0.066913061 0.074314483 0.44
-0.089879408 0.043837115 0.47
-0.099756405 0.006975648 0.44
-0.095105655 -0.0309017 0.44
-0.076604448 -0.064278759 0.43000001
-0.046947159 -0.088294759 0.40000001
-0.010452847 -0.09945219 0.47
0.027563736 -0.096126169 0.48000002
0.061566148 -0.078801081 0.46000001
0.086602539 -0.050000001 0.48000002
0.099026807 -0.013917311 0.48000002
0.1 0 0.54000002
0.092718385 0.037460659 0.52999997
0.071933985 0.069465838 0.50999999
0.040673666 0.091354549 0.54000002
0.00348995 0.099939086 0.59000003
-0.034202013 0.093969263 0.51999998
-0.066913061 0.074314483 0.5
-0.089879408 0.043837115 0.56
-0.099756405 0.006975648 0.57999998
-0.095105655 -0.0309017 0.59000003
-0.076604448 -0.064278759 0.51999998
-0.046947159 -0.088294759 0.56
-0.010452847 -0.09945219 0.56
0.027563736 -0.096126169 0.54000002
0.061566148 -0.078801081 0.59000003
0.086602539 -0.050000001 0.55000001
0.099026807 -0.013917311 0.5
0.1 0 0.64000005
0.092718385 0.037460659 0.68000001
0.071933985 0.069465838 0.67000002
0.040673666 0.091354549 0.61000001
0.00348995 0.099939086 0.67000002
-0.034202013 0.093969263 0.62
-0.066913061 0.074314483 0.67000002
-0.089879408 0.043837115 0.62
-0.099756405 0.006975648 0.62
-0.095105655 -0.0309017 0.66000003
-0.076604448 -0.064278759 0.61000001
-0.046947159 -0.088294759 0.60000002
-0.010452847 -0.09945219 0.66000003
0.027563736 -0.096126169 0.61000001
0.061566148 -0.078801081 0.65000004
0.086602539 -0.050000001 0.69000006
0.099026807 -0.013917311 0.64000005
0.1 0 0.79000008
0.092718385 0.037460659 0.70000005
0.071933985 0.069465838 0.79000008
0.040673666 0.091354549 0.71000004
0.00348995 0.099939086 0.77000004
-0.034202013 0.093969263 0.77000004
-0.066913061 0.074314483 0.71000004
-0.089879408 0.043837115 0.71000004
-0.099756405 0.006975648 0.75000006
-0.095105655 -0.0309017 0.79000008
-0.076604448 -0.064278759 0.77000004
-0.046947159 -0.088294759 0.77000004
-0.010452847 -0.09945219 0.76000005
0.027563736 -0.096126169 0.77000004
0.061566148 -0.078801081 0.73000002
0.086602539 -0.050000001 0.76000005
0.099026807 -0.013917311 0.75000006
0.1 0 0.86000007
0.092718385 0.037460659 0.83000004
0.071933985 0.069465838 0.8900001
0.040673666 0.091354549 0.84000009
0.00348995 0.099939086 0.88000005
-0.034202013 0.093969263 0.81000006
-0.066913061 0.074314483 0.82000005
-0.089879408 0.043837115 0.8900001
-0.099756405 0.006975648 0.83000004
-0.095105655 -0.0309017 0.8900001
-0.076604448 -0.064278759 0.80000007
-0.046947159 -0.088294759 0.88000005
-0.010452847 -0.09945219 0.88000005
0.027563736 -0.096126169 0.85000008
0.061566148 -0.078801081 0.80000007
0.086602539 -0.050000001 0.8900001
0.099026807 -0.013917311 0.86000007
0.1 0 0.93000007
0.092718385 0.037460659 0.98000008
0.071933985 0.069465838 0.95000011
0.040673666 0.091354549 0.9600001
0.00348995 0.099939086 0.91000009
-0.034202013 0.093969263 0.91000009
-0.066913061 0.074314483 0.95000011
-0.089879408 0.043837115 0.99000013
-0.099756405 0.006975648 0.98000008
-0.095105655 -0.0309017 0.94000012
-0.076604448 -0.064278759 0.98000008
-0.046947159 -0.088294759 0.91000009
-0.010452847 -0.09945219 0.9000001
0.027563736 -0.096126169 0.93000007
0.061566148 -0.078801081 0.9000001
0.086602539 -0.050000001 0.94000012
0.099026807 -0.013917311 0.94000012
0.099984773 0.0017452406 1.0400001
0.092050485 0.039073113 1.0400001
0.070710681 0.070710681 1.0700002
0.039073113 0.092050485 1.0600001
0.0017452409 0.099984773 1.0300001
-0.035836793 0.093358047 1.0100001
-0.068199836 0.073135369 1.0700002
-0.090630777 0.042261828 1.0500001
-0.099862956 0.0052335961 1.0900002
-0.094551861 -0.032556817 1.0600001
-0.075470962 -0.065605901 1.0200001
-0.045399051 -0.089100651 1.0100001
-0.0087155746 -0.099619471 1.0700002
0.02923717 -0.095630474 1.0800002
0.062932037 -0.0777146 1.0500001
0.087461971 -0.048480961 1.0700002
0.099254616 -0.012186935 1.0400001
0.099984773 0.0017452406 1.1100001
0.092050485 0.039073113 1.1800002
0.070710681 0.070710681 1.1500001
0.039073113 0.092050485 1.1900002
0.0017452409 0.099984773 1.1700002
-0.035836793 0.093358047 1.1500001
-0.068199836 0.073135369 1.1300001
-0.090630777 0.042261828 1.1800002
-0.099862956 0.0052335961 1.1800002
-0.094551861 -0.032556817 1.1300001
-0.075470962 -0.065605901 1.1100001
-0.045399051 -0.089100651 1.1800002
-0.0087155746 -0.099619471 1.1900002
0.02923717 -0.095630474 1.1600001
0.062932037 -0.0777146 1.1400001
0.087461971 -0.048480961 1.1300001
0.099254616 -0.012186935 1.1300001
0.099984773 0.0017452406 1.2300001
0.092050485 0.039073113 1.2800002
0.070710681 0.070710681 1.2600001
0.039073113 0.092050485 1.2000002
0.0017452409 0.099984773 1.2400001
-0.035836793 0.093358047 1.2800002
-0.068199836 0.073135369 1.2800002
-0.090630777 0.042261828 1.2800002
-0.099862956 0.0052335961 1.2900002
-0.094551861 -0.032556817 1.2700002
-0.075470962 -0.065605901 1.2700002
-0.045399051 -0.089100651 1.2600001
-0.0087155746 -0.099619471 1.2400001
0.02923717 -0.095630474 1.2300001
0.062932037 -0.0777146 1.2000002
0.087461971 -0.048480961 1.2300001
0.099254616 -0.012186935 1.2000002
0.099984773 0.0017452406 1.3900002
0.092050485 0.039073113 1.3200002
0.070710681 0.070710681 1.3500001
0.039073113 0.092050485 1.3400002
0.0017452409 0.099984773 1.3000002
-0.035836793 0.093358047 1.3500001
-0.068199836 0.073135369 1.3900002
-0.090630777 0.042261828 1.3400002
-0.099862956 0.0052335961 1.3600001
-0.094551861 -0.032556817 1.3900002
-0.075470962 -0.065605901 1.3200002
-0.045399051 -0.089100651 1.3200002
-0.0087155746 -0.099619471 1.3400002
0.02923717 -0.095630474 1.3700002
0.062932037 -0.0777146 1.3700002
0.087461971 -0.048480961 1.3500001
0.099254616 -0.012186935 1.3400002
0.099984773 0.0017452406 1.4800003
0.092050485 0.039073113 1.4100002
0.070710681 0.070710681 1.4200002
0.039073113 0.092050485 1.4800003
0.0017452409 0.099984773 1.4900002
-0.035836793 0.093358047 1.4300002
-0.068199836 0.073135369 1.4600002
-0.090630777 0.042261828 1.4800003
-0.099862956 0.0052335961 1.4000002
-0.094551861 -0.032556817 1.4200002
-0.075470962 -0.065605901 1.4100002
-0.045399051 -0.089100651 1.4000002
-0.0087155746 -0.099619471 1.4500002
0.02923717 -0.095630474 1.4100002
0.062932037 -0.0777146 1.4100002
0.087461971 -0.048480961 1.4000002
0.099254616 -0.012186935 1.4800003
0.099984773 0.0017452406 1.5500002
0.092050485 0.039073113 1.5000002
0.070710681 0.070710681 1.5600002
0.039073113 0.092050485 1.5400002
0.0017452409 0.099984773 1.5600002
-0.035836793 0.093358047 1.5200002
-0.068199836 0.073135369 1.5500002
-0.090630777 0.042261828 1.5800003
-0.099862956 0.0052335961 1.5600002
-0.094551861 -0.032556817 1.5200002
-0.075470962 -0.065605901 1.5800003
-0.045399051 -0.089100651 1.5400002
-0.0087155746 -0.099619471 1.5700003
0.02923717 -0.095630474 1.5200002
0.062932037 -0.0777146 1.5400002
0.087461971 -0.048480961 1.5000002
0.099254616 -0.012186935 1.5600002
0.099984773 0.0017452406 1.6200002
0.092050485 0.039073113 1.6900003
0.070710681 0.070710681 1.6900003
0.039073113 0.092050485 1.6000003
0.0017452409 0.099984773 1.6800003
-0.035836793 0.093358047 1.6100003
-0.068199836 0.073135369 1.6300002
-0.090630777 0.042261828 1.6100003
-0.099862956 0.0052335961 1.6100003
-0.094551861 -0.032556817 1.6000003
-0.075470962 -0.065605901 1.6300002
-0.045399051 -0.089100651 1.6400002
-0.0087155746 -0.099619471 1.6000003
0.02923717 -0.095630474 1.6300002
0.062932037 -0.0777146 1.6900003
0.087461971 -0.048480961 1.6100003
0.099254616 -0.012186935 1.6900003
0.099984773 0.0017452406 1.7600002
0.092050485 0.039073113 1.7900003
0.070710681 0.070710681 1.7300003
0.039073113 0.092050485 1.7300003
0.0017452409 0.099984773 1.7800003
-0.035836793 0.093358047 1.7000003
-0.068199836 0.073135369 1.7500002
-0.090630777 0.042261828 1.7600002
-0.099862956 0.0052335961 1.7600002
-0.094551861 -0.032556817 1.7400002
-0.075470962 -0.065605901 1.7000003
-0.045399051 -0.089100651 1.7000003
-0.0087155746 -0.099619471 1.7400002
0.02923717 -0.095630474 1.7600002
0.062932037 -0.0777146 1.7200003
0.087461971 -0.048480961 1.7600002
0.099254616 -0.012186935 1.7700003
0.099984773 0.0017452406 1.8500003
0.092050485 0.039073113 1.8600003
0.070710681 0.070710681 1.8900003
0.039073113 0.092050485 1.8800004
0.0017452409 0.099984773 1.8700004
-0.035836793 0.093358047 1.8200003
-0.068199836 0.073135369 1.8800004
-0.090630777 0.042261828 1.8200003
-0.099862956 0.0052335961 1.8900003
-0.094551861 -0.032556817 1.8900003
-0.075470962 -0.065605901 1.8600003
-0.045399051 -0.089100651 1.8000003
-0.0087155746 -0.099619471 1.8200003
0.02923717 -0.095630474 1.8700004
0.062932037 -0.0777146 1.8600003
0.087461971 -0.048480961 1.8100003
0.099254616 -0.012186935 1.8300003
0.099984773 0.0017452406 1.9200003
0.092050485 0.039073113 1.9100003
0.070710681 0.070710681 1.9500003
0.039073113 0.092050485 1.9900004
0.0017452409 0.099984773 1.9900004
-0.035836793 0.093358047 1.9100003
-0.068199836 0.073135369 1.9400003
-0.090630777 0.042261828 1.9900004
-0.099862956 0.0052335961 1.9100003
-0.094551861 -0.032556817 1.9000003
-0.075470962 -0.065605901 1.9700004
-0.045399051 -0.089100651 1.9500003
-0.0087155746 -0.099619471 1.9800004
0.02923717 -0.095630474 1.9700004
0.062932037 -0.0777146 1.9000003
0.087461971 -0.048480961 1.9400003
0.099254616 -0.012186935 1.9800004
0.099939086 0.0034899497 2.0000002
0.091354549 0.040673666 2.0400002
0.069465838 0.071933985 2.0200002
0.037460659 0.092718385 2.0900002
1.7948967e-10 0.1 2.0600002
-0.037460659 0.092718385 2.0100002
-0.069465838 0.071933985 2.0000002
-0.091354549 0.040673666 2.0400002
-0.099939086 0.00348995 2.0200002
-0.093969263 -0.034202013 2.0200002
-0.074314483 -0.066913061 2.0200002
-0.043837115 -0.089879408 2.0000002
-0.006975648 -0.099756405 2.0500002
0.0309017 -0.095105655 2.0500002
0.064278759 -0.076604448 2.0200002
0.088294759 -0.046947159 2.0900002
0.09945219 -0.010452847 2.0000002
0.099939086 0.0034899497 2.1200001
0.091354549 0.040673666 2.1800001
0.069465838 0.071933985 2.1300001
0.037460659 0.092718385 2.1800001
1.7948967e-10 0.1 2.1000001
-0.037460659 0.092718385 2.1400001
-0.069465838 0.071933985 2.1000001
-0.091354549 0.040673666 2.1900001
-0.099939086 0.00348995 2.1100001
-0.093969263 -0.034202013 2.1900001
-0.074314483 -0.066913061 2.1600001
-0.043837115 -0.089879408 2.1200001
-0.006975648 -0.099756405 2.1500001
0.0309017 -0.095105655 2.1400001
0.064278759 -0.076604448 2.1400001
0.088294759 -0.046947159 2.1900001
0.09945219 -0.010452847 2.1900001
0.099939086 0.0034899497 2.23
0.091354549 0.040673666 2.26
0.069465838 0.071933985 2.2
0.037460659 0.092718385 2.25
1.7948967e-10 0.1 2.2
-0.037460659 0.092718385 2.22
-0.069465838 0.071933985 2.29
-0.091354549 0.040673666 2.24
-0.099939086 0.00348995 2.23
-0.093969263 -0.034202013 2.25
-0.074314483 -0.066913061 2.21
-0.043837115 -0.089879408 2.27
-0.006975648 -0.099756405 2.24
0.0309017 -0.095105655 2.23
0.064278759 -0.076604448 2.21
0.088294759 -0.046947159 2.24
0.09945219 -0.010452847 2.26
0.099939086 0.0034899497 2.3899999
0.091354549 0.040673666 2.3399999
0.069465838 0.071933985 2.3199999
0.037460659 0.092718385 2.3199999
1.7948967e-10 0.1 2.3599999
-0.037460659 0.092718385 2.3399999
-0.069465838 0.071933985 2.3099999
-0.091354549 0.040673666 2.3199999
-0.099939086 0.00348995 2.3799999
-0.093969263 -0.034202013 2.3799999
-0.074314483 -0.066913061 2.3899999
-0.043837115 -0.089879408 2.3199999
-0.006975648 -0.099756405 2.3799999
0.0309017 -0.095105655 2.3799999
0.064278759 -0.076604448 2.3799999
0.088294759 -0.046947159 2.3599999
0.09945219 -0.010452847 2.3799999
0.099939086 0.0034899497 2.4299998
0.091354549 0.040673666 2.4799998
0.069465838 0.071933985 2.4299998
0.037460659 0.092718385 2.4299998
1.7948967e-10 0.1 2.4299998
-0.037460659 0.092718385 2.4799998
-0.069465838 0.071933985 2.3999999
-0.091354549 0.040673666 2.4399998
-0.099939086 0.00348995 2.4699998
-0.093969263 -0.034202013 2.4599998
-0.074314483 -0.066913061 2.4799998
-0.043837115 -0.089879408 2.4899998
-0.006975648 -0.099756405 2.3999999
0.0309017 -0.095105655 2.4599998
0.064278759 -0.076604448 2.4799998
0.088294759 -0.046947159 2.4699998
0.09945219 -0.010452847 2.4899998
0.099939086 0.0034899497 2.4999998
0.091354549 0.040673666 2.5299997
0.069465838 0.071933985 2.5299997
0.037460659 0.092718385 2.5299997
1.7948967e-10 0.1 2.5699997
-0.037460659 0.092718385 2.5299997
-0.069465838 0.071933985 2.5199997
-0.091354549 0.040673666 2.5599997
-0.099939086 0.00348995 2.5499997
-0.093969263 -0.034202013 2.5199997
-0.074314483 -0.066913061 2.5599997
-0.043837115 -0.089879408 2.5499997
-0.006975648 -0.099756405 2.5799997
0.0309017 -0.095105655 2.5699997
0.064278759 -0.076604448 2.5899997
0.088294759 -0.046947159 2.5599997
0.09945219 -0.010452847 2.4999998
0.099939086 0.0034899497 2.6399996
0.091354549 0.040673666 2.6099997
0.069465838 0.071933985 2.5999997
0.037460659 0.092718385 2.6399996
1.7948967e-10 0.1 2.6799996
-0.037460659 0.092718385 2.6699996
-0.069465838 0.071933985 2.5999997
-0.091354549 0.040673666 2.6799996
-0.099939086 0.00348995 2.6599996
-0.093969263 -0.034202013 2.6199996
-0.074314483 -0.066913061 2.6399996
-0.043837115 -0.089879408 2.6699996
-0.006975648 -0.099756405 2.6899996
0.0309017 -0.095105655 2.6299996
0.064278759 -0.076604448 2.6899996
0.088294759 -0.046947159 2.6199996
0.09945219 -0.010452847 2.6799996
0.099939086 0.0034899497 2.7299995
0.091354549 0.040673666 2.6999996
0.069465838 0.071933985 2.7099996
0.037460659 0.092718385 2.7699995
1.7948967e-10 0.1 2.7799995
-0.037460659 0.092718385 2.7899995
-0.069465838 0.071933985 2.7099996
-0.091354549 0.040673666 2.7499995
-0.099939086 0.00348995 2.7399995
-0.093969263 -0.034202013 2.7899995
-0.074314483 -0.066913061 2.7199996
-0.043837115 -0.089879408 2.7499995
-0.006975648 -0.099756405 2.7699995
0.0309017 -0.095105655 2.7399995
0.064278759 -0.076604448 2.7899995
0.088294759 -0.046947159 2.7899995
0.09945219 -0.010452847 2.7399995
0.099939086 0.0034899497 2.8499994
0.091354549 0.040673666 2.8899994
0.069465838 0.071933985 2.8299994
0.037460659 0.092718385 2.8499994
1.7948967e-10 0.1 2.8699994
-0.037460659 0.092718385 2.7999995
-0.069465838 0.071933985 2.8799994
-0.091354549 0.040673666 2.8099995
-0.099939086 0.00348995 2.8899994
-0.093969263 -0.034202013 2.8899994
-0.074314483 -0.066913061 2.8699994
-0.043837115 -0.089879408 2.8799994
-0.006975648 -0.099756405 2.8199995
0.0309017 -0.095105655 2.8499994
0.064278759 -0.076604448 2.8299994
0.088294759 -0.046947159 2.8399994
0.09945219 -0.010452847 2.8899994
0.099939086 0.0034899497 2.8999994
0.091354549 0.040673666 2.9199994
0.069465838 0.071933985 2.8999994
0.037460659 0.092718385 2.9099994
1.7948967e-10 0.1 2.9899993
-0.037460659 0.092718385 2.9599993
-0.069465838 0.071933985 2.9199994
-0.091354549 0.040673666 2.9099994
-0.099939086 0.00348995 2.9199994
-0.093969263 -0.034202013 2.8999994
-0.074314483 -0.066913061 2.9699993
-0.043837115 -0.089879408 2.9299994
-0.006975648 -0.099756405 2.9099994
0.0309017 -0.095105655 2.9099994
0.064278759 -0.076604448 2.9899993
0.088294759 -0.046947159 2.8999994
0.09945219 -0.010452847 2.9499993
0.099939086 0.0034899497 3.0599992
0.090630777 0.042261828 3.0699992
0.068199836 0.073135369 3.0699992
0.035836797 0.093358047 3.0399992
-0.0017452405 0.099984773 2.9999993
-0.039073113 0.092050485 3.0599992
-0.070710681 0.070710681 3.0399992
-0.092050485 0.039073113 3.0699992
-0.099984773 0.001745241 3.0399992
-0.093358047 -0.035836793 3.0799992
-0.073135369 -0.068199836 3.0499992
-0.042261828 -0.090630777 3.0799992
-0.0052335961 -0.099862956 3.0199993
0.032556817 -0.094551861 3.0599992
0.065605901 -0.075470962 2.9999993
0.089100651 -0.045399051 3.0599992
0.099619471 -0.0087155756 3.0599992
