# .PCD v0.7 - Point Cloud Data file format
VERSION 0.7
FIELDS x y z
SIZE 4 4 4
TYPE F F F
COUNT 1 1 1
WIDTH 64
HEIGHT 1
VIEWPOINT 0 0 0 1 0 0 0
POINTS 64
DATA ascii
-0.004363101 -0 0.24996193
-0.0030308645 -0.0031385522 0.24996193
0.00015227002 -0.004360443 0.24996193
0.0032424158 -0.0029194844 0.24996193
0.0043524727 0.00030435453 0.24996193
0.0028045473 0.0033423293 0.24996193
-0.00045606823 0.0043391995 0.24996193
-0.0034381705 0.0026861932 0.24996193
-0.10168416 -0 0.22838636
-0.070635751 -0.073145464 0.22838636
0.0035487257 -0.10162222 0.22838636
0.075566061 -0.068039984 0.22838636
0.10143647 0.0070931283 0.22838636
0.065361321 0.077894583 0.22838636
-0.010628888 0.10112713 0.22838636
-0.080128215 0.062603019 0.22838636
-0.18283843 -0 0.17049959
-0.12701024 -0.13152295 0.17049959
0.0063809687 -0.18272704 0.17049959
0.13587543 -0.12234279 0.17049959
0.18239304 0.012754163 0.17049959
0.11752628 0.14006236 0.17049959
-0.019111818 0.18183681 0.17049959
-0.14407864 0.11256658 0.17049959
-0.23492315 -0 0.085505038
-0.16319133 -0.16898957 0.085505038
0.008198699 -0.23478004 0.085505038
0.17458193 -0.15719427 0.085505038
0.23435089 0.01638741 0.085505038
0.1510057 0.17996158 0.085505038
-0.024556154 0.23363622 0.085505038
-0.18512197 0.14463314 0.085505038
-0.24965738 -0 -0.013083988
-0.17342658 -0.17958848 -0.013083988
0.0087129166 -0.2495053 -0.013083988
0.18553159 -0.16705339 -0.013083988
0.24904923 0.017415218 -0.013083988
0.16047667 0.19124864 -0.013083988
-0.026096301 0.24828973 -0.013083988
-0.1967327 0.15370443 -0.013083988
-0.22469851 -0 -0.10959279
-0.15608871 -0.16163458 -0.10959279
0.0078418646 -0.22456163 -0.10959279
0.16698353 -0.15035266 -0.10959279
0.22415116 0.015674176 -0.10959279
0.14443342 0.17212905 -0.10959279
-0.023487389 0.22346759 -0.10959279
-0.17706485 0.13833822 -0.10959279
-0.16401476 -0 -0.1886774
-0.11393423 -0.11798234 -0.1886774
0.0057240319 -0.16391484 -0.1886774
0.12188672 -0.10974729 -0.1886774
0.16361523 0.01144109 -0.1886774
0.10542665 0.1256426 -0.1886774
-0.017144209 0.16311626 -0.1886774
-0.12924539 0.10097757 -0.1886774
-0.077254251 -0 -0.23776414
-0.05366531 -0.055572059 -0.23776414
0.0026961344 -0.077207193 -0.23776414
0.057411097 -0.051693182 -0.23776414
0.077066064 0.005388984 -0.23776414
0.049658075 0.059180189 -0.23776414
-0.008075268 0.076831043 -0.23776414
-0.060877182 0.047562465 -0.23776414
